2.492 2.43025 2.490597 2.323063 2.388043 2.31075 2.34125 2.24077 2.311412 2.40431 2.384813 2.281 2.34075 2.305465 2.465176 2.377 2.408131 2.3505 2.30575 2.28325 2.332035 2.466584 2.575577 2.1158 2.106465 2.193528 2.244779 2.329016 2.347333 2.323975 2.3175 2.341814 2.617281 2.7775 2.750935 2.195744 1.78 1.61075 1.7315 2.171752 2.518712 2.499911 2.46425 2.347006 2.26 2.28575 2.36775 2.217945 2.109311 1.98275 2.081 2.286893 2.333 2.4855 2.441103 2.422505 2.546517 2.540183 2.567346 2.397588 2.244331 2.181761 2.13275 2.261946 2.34825 2.31475 2.388107 2.35675 2.372683 2.565191 2.550248 2.77525 1.9779 1.466814 1.18346 1.116 1.33 1.56275 1.9015 2.261137 2.373778 2.271059 2.421756 2.372 2.55394 2.348792 1.987 1.93425 1.930055 1.973906 1.949 1.966 2.0475 2.11625 2.131936 1.910454 1.73525 1.911965 2.386214 2.239561 2.16275 2.12375 2.15125 2.165 2.16975 2.173015 2.25075 2.203 2.215281 2.24525 2.14825 2.14475 2.244958 2.094287 1.89475 1.86575 1.87225 1.8885 1.91925 2.320377 2.4155 2.221292 2.182181 2.2145 2.23 2.17875 2.2575 2.268 2.35375 2.519037 2.503371 2.093019 2.08775 2.189081 2.23475 2.276 2.2415 2.22525 2.32325 2.26725 2.34825 2.36775 2.2765 2.3755 2.28275 2.331 2.367915 2.37675 2.508951 2.328233 1.994 1.918 1.9715 2.047106 2.061 2.1455 2.21975 2.26175 2.405154 2.399108 2.341 2.43725 2.457 2.3565 2.289179 2.118 2.0415 2.02375 2.019181 2.222593 2.113173 2.11225 2.144212 2.22475 2.255 2.2375 2.280917 2.2335 2.26475 2.25325 2.26075 2.259 2.18275 2.1315 2.1635 2.16475 2.181958 2.28 2.27525 2.192 2.11 2.0995 2.10025 2.0705 2.10725 2.11525 2.06825 2.0675 2.11075 2.0915 2.091 2.0535 1.97775 1.94925 1.94925 1.9465 1.899 1.839 1.7585 1.6445 1.61275 1.5615 1.505 1.50475 1.50675 1.51325 1.4975 1.477 1.4235 1.44075 1.4535 1.45175 1.4415 1.44075 1.42325 1.44725 1.43825 1.43675 1.43575 1.40975 1.40725 1.41275 1.41925 1.417 1.4085 1.385 1.404 1.41175 1.38525 1.3655 1.408 1.3925 1.394 1.368 1.35925 1.39175 1.378 1.36325 1.32825 1.34375 1.3195 1.301 1.33975 1.2995 1.30475 1.2725 1.27075 1.256 1.24225 1.2905 1.2385 1.21575 1.228 1.22375 1.28175 1.26975 1.262 0.98125 1.03175 1.08125 1.303 1.154345 1.00025 1.048 1.114857 1.05625 0.925 0.933 0.9405 0.92725 0.967 1.088208 1.03825 1.06675 1.215 1.124778 1.097412 1.08775 0.9761835 1.003763 1.129176 1.035429 1.06275 1.13425 1.20675 1.27125 1.314 1.192 1.0725 1.1545 1.22 1.33325 1.33425 1.303 1.30975 1.353 1.38025 1.3235 1.2715 1.193477 0.9572167 0.9684005 0.969 0.90475 0.926 0.9485 0.9329203 0.9513802 0.981 0.9325 0.9932474 0.98025 0.943 1.0215 0.9582371 1.029 1.03125 1.001422 1.093075 1.015 1.173279 1.024 1.02475 1.057583 1.00975 1.131667 1.096632 1.14 1.062477 1.0205 1.05875 1.002 0.97725 0.99025 1.003 1.0135 1.01275 0.9975 0.99275 1.00625 1.006 1.016 1.0915 1.061 1.073365 0.99925 0.93275 0.925 0.8825 0.9665 0.92975 1.038694 1.0815 1.12575 1.02775 1.03275 1.04525 1.038 1.079879 1.018 1.02375 1.02425 1.061 1.030526 0.9607122 1.065422 1.03375 1.0735 1.12575 1.08775 1.0715 1.041 0.991 0.994 1.002 0.983 1.02875 1.082 1.089 1.0415 0.992 0.974 1.0425 1.04225 1.0065 1.105579 1.043 1.016 0.989
2.55875 2.439452 2.3455 2.28025 2.302972 2.318782 2.330764 2.29725 2.342269 2.315 2.2625 2.29991 2.230339 2.24525 2.31325 2.3545 2.4735 2.375531 2.386746 2.334366 2.34125 2.402 2.468502 2.17625 2.216379 2.281315 2.28493 2.306789 2.2345 2.251483 2.281 2.2665 2.37575 2.687538 2.619819 2.063302 1.7575 1.62225 1.916731 2.575289 2.514701 2.261233 2.288719 2.28225 2.298 2.30075 2.404597 2.509228 2.392298 2.128717 2.05325 2.356238 2.47225 2.413081 2.464754 2.401503 2.510546 2.414773 2.381806 2.40325 2.403352 2.262129 2.13125 2.197052 2.3385 2.276 2.32925 2.365 2.35875 2.42625 2.637841 2.80425 1.808267 1.44375 1.24875 1.14125 1.3435 1.630429 2.06071 2.445374 2.46525 2.4025 2.41425 2.39375 2.549168 2.287906 1.959 1.971616 1.958003 1.966689 2.023081 2.058229 2.12488 2.297054 2.059331 1.816975 1.73725 1.876322 2.311563 2.167098 2.031 2.12475 2.134 2.14025 2.1645 2.131 2.256 2.28375 2.20675 2.1715 2.16875 2.15675 2.146 2.119145 1.943 1.88125 1.88525 1.90125 1.92575 2.111724 2.140069 2.0885 2.0975 2.195 2.16925 2.1425 2.28 2.3075 2.27475 2.3355 2.395739 2.1705 2.09375 2.239563 2.411 2.2205 2.258 2.278 2.3545 2.267 2.32575 2.326872 2.36225 2.3185 2.271 2.354792 2.326 2.304 2.487428 2.199689 1.9895 1.92425 2.208392 2.185911 2.17925 2.274358 2.1765 2.333368 2.3605 2.467 2.33275 2.377 2.366 2.352 2.32075 2.1585 2.071 2.05325 2.02075 2.041 2.106 2.173114 2.24475 2.2995 2.30275 2.2805 2.2365 2.26125 2.2005 2.1985 2.2405 2.22525 2.2385 2.1795 2.3255 2.361 2.29125 2.2525 2.2405 2.216549 2.207 2.1995 2.18825 2.20175 2.1725 2.072 2.138 2.10675 2.111 2.12825 2.12875 2.1465 2.148 2.07975 2.0095 2.00325 1.8995 1.87475 1.8085 1.69075 1.65475 1.64325 1.599 1.52875 1.524 1.49825 1.50025 1.48125 1.453 1.44525 1.4535 1.463 1.466 1.4575 1.42475 1.4355 1.4425 1.4535 1.47275 1.41425 1.418 1.41 1.4335 1.4145 1.353 1.39375 1.405 1.4035 1.405 1.3985 1.40525 1.38675 1.3955 1.381 1.34625 1.4085 1.3855 1.37775 1.35025 1.3585 1.34575 1.34025 1.327 1.30075 1.31275 1.30425 1.2975 1.28125 1.2515 1.2505 1.24725 1.26425 1.2535 1.24225 1.22275 1.2115 1.18525 1.003 1.15625 1.142208 1.0895 1.11925 0.959 0.99525 1.025685 1.02975 0.95475 1.016 1.015 0.96825 1.0381 1.128137 0.9698302 1.01625 1.214 1.186 1.007 1.00575 1.1025 1.190009 1.20725 1.087 1.19225 1.2745 1.1805 1.214 1.2685 1.26925 1.214875 1.1195 1.13675 1.34475 1.3265 1.28575 1.32225 1.34925 1.331 1.3 1.2905 1.28975 1.14175 1.009 0.9602517 0.97775 0.90625 0.9115 0.991 0.90725 0.933 0.9655 1.055497 0.9652925 0.9024139 0.98925 0.9405 1.099691 1.03425 1.05975 1.06925 0.96875 1.154375 1.034 1.05975 1.02725 1.01075 1.02875 1.06 1.08525 0.99375 1.056 1.038142 1.00725 0.99375 1.01375 0.96675 1.030617 1.079438 1.11375 0.99725 0.97875 1.0115 1.02075 1.04925 1.033278 1.00175 0.99125 0.9832816 1.05325 1.046828 0.905 0.8485 1.017195 0.98075 1.02525 1.1345 1.090432 1.129 1.00925 1.081285 1.058783 1.031 1.03125 1.02475 1.059 0.9970379 1.12475 1.086781 1.0945 1.132968 1.088875 1.1525 1.112 1.044 1.02025 1.05875 1.091 0.97 1.116566 1.102974 1.0415 1.0085 1.01225 0.99425 1.01575 1.029 1.0135 0.9895 1.08825 1.024
2.338477 2.496741 2.306022 2.2655 2.323946 2.31975 2.24975 2.251263 2.346 2.479655 2.46797 2.401148 2.25275 2.24175 2.296 2.45475 2.584339 2.6085 2.539789 2.27875 2.309 2.371135 2.219562 2.20125 2.277083 2.231 2.270819 2.275987 2.271 2.301602 2.328409 2.307802 2.34 2.449135 2.380136 1.924735 1.690118 1.661 1.930344 2.654995 2.388527 2.3375 2.26825 2.303648 2.321153 2.40425 2.5025 2.72575 2.469992 2.087434 2.0085 2.290708 2.340354 2.4625 2.348571 2.423949 2.494341 2.450022 2.331392 2.436092 2.493756 2.313349 2.131 2.137 2.253554 2.289188 2.32375 2.313093 2.259392 2.463802 2.79675 2.692498 1.736315 1.4285 1.245 1.07525 1.3235 1.56058 2.23006 2.47 2.39975 2.38775 2.36875 2.291 2.400077 2.258234 1.977 1.956511 1.993948 1.958069 2.009874 2.12014 2.182591 2.37675 2.201725 1.876962 1.8035 1.80175 2.100284 2.14 2.00875 2.117153 2.158622 2.242542 2.236 2.106 2.11325 2.132 2.14175 2.2105 2.1875 2.13682 2.046 1.96475 1.9165 1.8655 1.8975 1.922 2.00025 2.018123 1.994586 2.04625 2.0525 2.10325 2.127 2.156 2.22125 2.31875 2.3485 2.4095 2.279571 2.25975 2.08325 2.15925 2.286 2.316 2.2315 2.31025 2.36625 2.31225 2.2735 2.30575 2.3035 2.316 2.31075 2.347 2.374097 2.34475 2.411789 2.131612 1.97125 1.945 2.306055 2.326 2.377 2.3235 2.355434 2.308664 2.36125 2.3209 2.456183 2.385 2.353997 2.515123 2.335667 2.356179 2.260761 2.10425 2.0535 2.0715 2.210639 2.283133 2.26425 2.277 2.24775 2.232 2.26775 2.264 2.259 2.228 2.3095 2.25575 2.1845 2.231 2.311178 2.30525 2.198843 2.20925 2.292 2.387 2.208 2.1535 2.1925 2.13875 2.14225 2.13575 2.18475 2.147 2.131 2.13425 2.1 2.13625 2.09475 2.00575 2.00975 1.98625 1.87925 1.89825 1.833 1.77725 1.721 1.71375 1.692 1.61825 1.6445 1.636 1.58225 1.55175 1.452 1.46825 1.47425 1.479 1.47725 1.46775 1.4375 1.4535 1.44475 1.45975 1.451 1.4435 1.452 1.43225 1.441 1.40125 1.357 1.41875 1.41375 1.415 1.40725 1.4145 1.40925 1.406 1.396 1.376 1.37 1.37225 1.3685 1.3635 1.356 1.37225 1.34425 1.34575 1.31675 1.31175 1.33425 1.30675 1.30225 1.2695 1.2535 1.25925 1.255 1.2715 1.25425 1.2385 1.2565 1.16625 1.128 1.0625 1.18075 1.070782 1.126592 1.08295 1.0325 0.9915 1.025433 1.00275 0.96375 1.13075 1.174 1.009921 1.2425 0.9705972 1.03075 1.0935 1.3165 1.24275 0.97025 1.0135 0.9791542 1.076523 1.0985 1.0705 1.24625 1.284 1.033278 1.21375 1.07075 1.15675 1.107125 1.085551 1.12975 1.278 1.28725 1.21175 1.272 1.338 1.2985 1.2935 1.289 1.31025 1.23775 1.05975 0.88 0.9993079 0.9989998 0.9531295 0.902 0.931 0.99275 0.95725 1.02385 1.070527 1.077322 1.03875 0.988151 1.1165 1.055115 1.032083 1.042722 1.00525 1.08975 0.97325 1.0465 0.9635 0.9955 1.02 1.0275 1.095512 1.0095 1.007 1.00725 1.01475 1.06684 0.9640898 1.0145 1.01075 1.103594 1.06575 0.98575 1.0355 0.9995357 1.039394 0.999 1.02275 1.005 0.98375 0.9735 0.9655 1.029413 0.92575 0.863 0.98225 0.92875 1.061864 1.100815 1.07525 1.046 1.04525 1.093156 1.07375 1.06025 1.084846 1.021 1.079198 1.04475 1.03325 1.0365 1.069 1.039 1.037882 1.1585 1.036686 1.09 1.035 1.071643 1.10725 1.0195 1.03575 1.0385 1.03425 0.9980001 1.0265 1.058958 0.94125 1.03675 0.98325 0.98575 1.079375 0.986
2.356176 2.29703 2.266025 2.316267 2.28775 2.2665 2.29175 2.269 2.38314 2.386293 2.450375 2.4025 2.24075 2.2315 2.257 2.346 2.555 2.57875 2.502396 2.23425 2.428492 2.396535 2.257477 2.26475 2.203677 2.2995 2.24025 2.26375 2.2885 2.267 2.42175 2.420749 2.358371 2.481 2.408241 1.927052 1.738 1.6775 1.84825 2.6425 2.508836 2.324559 2.263 2.2495 2.293681 2.340677 2.629537 2.650773 2.291612 2.033823 2.028 2.234 2.286785 2.292628 2.341821 2.358239 2.489453 2.605756 2.378386 2.438678 2.412755 2.202627 2.102 2.1515 2.301642 2.310702 2.2635 2.276 2.21625 2.450378 2.751584 2.596402 1.849722 1.42675 1.21525 1.1255 1.34925 1.54589 2.228157 2.399 2.3245 2.3655 2.38225 2.403769 2.412644 2.235184 2.041627 1.96875 1.96825 2.058644 2.167188 2.153603 2.194 2.37025 2.45 1.999222 1.828 1.763 1.936195 2.11225 1.981 2.03075 1.96625 2.036617 2.071274 2.086 2.1405 2.09925 2.113 2.11875 2.197 2.21625 2.045024 2.024646 1.90875 1.8775 1.8975 1.972 2.103177 2.035437 2.007 2.121394 2.179 2.09775 2.11075 2.21725 2.23 2.23 2.32525 2.343 2.28875 2.2655 2.2125 2.14825 2.1895 2.329677 2.23025 2.222 2.30275 2.4045 2.325626 2.339761 2.28545 2.35325 2.306 2.318 2.276 2.389857 2.40025 2.183717 1.972 1.916 2.305431 2.313 2.2535 2.315445 2.289008 2.3155 2.309 2.237951 2.267352 2.29675 2.310324 2.44375 2.458 2.309532 2.189551 2.16625 2.04325 2.061 2.2485 2.38 2.3135 2.24225 2.209748 2.3445 2.206 2.23975 2.2615 2.341336 2.269 2.274265 2.17375 2.14575 2.198346 2.1845 2.1785 2.24075 2.290279 2.2215 2.262 2.246 2.2565 2.184021 2.1435 2.131 2.16325 2.18475 2.131814 2.1665 2.20575 2.15275 2.11775 2.08225 2.0715 2.0395 1.98425 1.9135 1.8945 1.8755 1.811 1.7675 1.80075 1.78475 1.762 1.73375 1.696 1.6535 1.55925 1.51325 1.493 1.49075 1.4635 1.463 1.45375 1.45875 1.46 1.4405 1.45125 1.45175 1.45875 1.4325 1.43575 1.4075 1.43225 1.4285 1.43375 1.40125 1.402 1.4155 1.39925 1.39575 1.391 1.3995 1.408 1.416 1.35875 1.36825 1.379 1.37325 1.3755 1.34 1.326 1.32375 1.315 1.3135 1.3115 1.29825 1.282 1.2935 1.2755 1.28225 1.2645 1.25925 1.23525 1.209 1.26 1.207375 1.283688 1.289 1.075 0.983 0.9315 0.95925 1.0235 1.059 1.090832 1.211943 1.170887 1.05475 1.075 1.08375 1.028 1.19325 1.269167 1.1765 0.96125 0.94675 1.016351 1.01175 0.974 1.0305 1.073771 1.085206 1.21675 1.158 1.01575 1.06125 1.087579 1.191 1.2315 1.33225 1.2355 1.03525 1.194654 1.268 1.29375 1.3005 1.31525 1.31025 1.2745 1.231346 0.9995244 0.8763402 0.9117024 0.97375 1.015625 0.8988141 1.096583 0.9669167 0.96925 1.039486 1.01325 0.985 0.9445 0.98825 0.997 1.00825 1.0055 0.99075 1.064 0.941 1.01425 1.024188 1.061 1.080833 1.01925 1.04175 1.0425 1.01225 0.9949611 1.076279 1.03625 0.943 0.968 0.966 0.96025 0.97325 0.9515 1.05625 1.040295 0.97 0.96175 0.9715 0.9865 0.97425 1.02275 0.953 0.98035 0.97475 1.02075 1.055 0.91625 1.015745 0.96325 0.9505 0.99425 1.01825 1.01625 1.00325 1.02575 1.04475 1.0265 1.02 0.99225 1.03075 1.005 1.05975 1.046 1.0505 1.04975 0.9885 1.045 1.06375 1.0235 1.01225 0.991 1.0115 1.04075 1.105388 1.0805 1.0345 1.1345 1.087115 1.08475 1.014 0.969 1.00975 0.9965
2.31575 2.2475 2.1705 2.235406 2.181 2.24475 2.345844 2.38425 2.39625 2.2495 2.3725 2.2735 2.2015 2.2175 2.246 2.418273 2.58325 2.5965 2.418721 2.2125 2.332833 2.24477 2.15325 2.240634 2.287481 2.243 2.21525 2.28825 2.2765 2.2765 2.357562 2.4175 2.3355 2.607905 2.488091 1.867166 1.74825 1.661 1.9555 2.699263 2.516128 2.3035 2.302563 2.280291 2.31025 2.350784 2.545 2.453625 2.163512 2.0195 2.03025 2.1915 2.231556 2.295395 2.2155 2.228885 2.295054 2.4379 2.394 2.496741 2.49175 2.193276 2.048 2.041991 2.21127 2.348 2.25425 2.1605 2.195044 2.456572 2.85325 2.666471 1.90273 1.37325 1.22575 1.159 1.39175 1.707467 2.324742 2.365723 2.27825 2.3745 2.42425 2.408 2.447 2.243969 2.14925 2.01125 1.98875 2.062102 2.202035 2.203951 2.193 2.476182 2.651102 2.450991 1.984335 1.76825 1.89275 1.91225 1.9845 2.107 2.07175 2.06425 2.05875 2.044838 2.185617 2.12325 2.12025 2.123 2.1005 2.22125 2.065229 1.977921 1.9135 1.88625 1.9215 1.971 1.97825 2.0205 2.0135 2.066 2.0685 2.096 2.16225 2.195 2.19625 2.1915 2.37475 2.359 2.3035 2.357688 2.380887 2.21575 2.13375 2.289988 2.35075 2.26495 2.175396 2.188 2.325548 2.44288 2.25875 2.34925 2.3435 2.29925 2.3145 2.394683 2.406 2.194772 1.9755 1.92975 2.118505 2.264003 2.33725 2.277 2.2235 2.35725 2.1815 2.250908 2.225357 2.283 2.331848 2.305512 2.243949 2.25475 2.39925 2.266256 2.0525 2.07725 2.2665 2.290884 2.2935 2.23275 2.3375 2.30075 2.261 2.19475 2.32 2.25575 2.29 2.304757 2.2095 2.25801 2.398093 2.306417 2.28075 2.3745 2.382 2.370703 2.291 2.26546 2.17025 2.15075 2.15175 2.262 2.21325 2.1955 2.1185 2.1525 2.2035 2.105 2.05975 2.12875 2.1155 2.08475 2.027 2.0395 1.97175 1.93625 1.85475 1.8205 1.80375 1.855 1.82 1.792 1.7815 1.68075 1.54825 1.46775 1.507 1.5065 1.50025 1.49425 1.47925 1.4605 1.4585 1.46775 1.45975 1.441 1.46375 1.44525 1.426 1.416 1.431 1.431 1.422 1.419 1.427 1.4155 1.417 1.40825 1.4175 1.401 1.42075 1.40975 1.376 1.376 1.3705 1.38 1.362 1.3405 1.34 1.33625 1.3395 1.32925 1.3645 1.31925 1.3045 1.31475 1.298 1.273 1.269 1.2825 1.25075 1.2175 1.21 1.092 1.18925 1.32675 1.149 1.0815 0.98025 1.030691 0.9655 0.988 1.126126 1.121 0.99425 1.038 1.1095 0.9709377 1.068613 1.007502 0.9899167 0.9435 0.943 0.94825 1.016396 1.18025 1.136326 1.05325 1.027 0.9562024 1.09525 1.01 1.01375 0.95275 0.9795 1.0475 1.09825 1.15575 1.08925 0.986 0.969 1.1565 1.286 1.31625 1.33975 1.30175 1.29675 1.31175 1.32875 0.9427987 0.8895 0.936 0.9245 0.95 0.933 0.94025 0.9445 0.97375 1.022373 0.931 0.93 0.9565 0.96875 0.933 1.014167 1.0005 1.009203 1.009 0.9685 0.9475 0.939 0.9465 0.96075 1.009 1.033499 1.08875 1.065618 1.07475 1.0325 1.030786 1.153 0.9799891 0.9595 0.94875 0.9869167 1.0365 0.94675 1.031333 0.98825 0.9795 0.96875 1.01275 1.150803 1.038353 1.047423 0.97675 1.02475 1.126683 0.9245 0.892 0.90925 0.94225 1.0165 1.07475 1.0125 0.99875 1.01625 1.03625 1.04275 1.02825 1.00425 1.0777 1.1695 1.10825 1.08332 1.08975 1.131 1.051 1.05475 1.03525 1.05375 1.03875 0.986 1.027 1.03925 1.146597 1.12775 0.99375 1.03275 1.05425 1.125123 1.0695 1.00175 1.079475 1.00875
2.3315 2.21375 2.297143 2.243379 2.171 2.346 2.313669 2.354311 2.4075 2.387697 2.275 2.2255 2.211 2.2075 2.283661 2.524048 2.61175 2.37823 2.291647 2.17725 2.278407 2.203959 2.1945 2.226494 2.299349 2.342608 2.328905 2.2925 2.3815 2.304 2.35175 2.3755 2.644352 2.79175 2.597562 1.85225 1.71425 1.7205 1.985721 2.408863 2.290426 2.21075 2.2115 2.209023 2.373435 2.473619 2.577834 2.195788 2.051 2.04975 2.071 2.183611 2.280172 2.265 2.310695 2.35175 2.42625 2.342511 2.4145 2.448212 2.475854 2.225759 2.0075 1.952262 1.988277 2.20601 2.280833 2.13525 2.201193 2.382557 2.8395 2.710071 1.806447 1.3905 1.2445 1.14625 1.4145 1.571833 2.275247 2.445246 2.34525 2.41295 2.390983 2.512456 2.606 2.380325 2.200977 2.08675 2.022 2.06975 2.250594 2.271432 2.24425 2.502453 2.676337 2.58683 2.092517 1.736 1.916039 2.035428 2.263552 2.250525 2.158341 2.21725 2.05725 2.1035 2.171952 2.066 2.184535 2.156221 2.143136 2.07675 1.974821 1.9435 1.9175 1.90025 1.929 1.95625 2.0025 2.0285 2.08575 2.11925 2.135 2.238768 2.284174 2.14425 2.24425 2.26325 2.36875 2.2945 2.34025 2.368 2.200452 2.208 2.08425 2.1665 2.15625 2.174 2.1805 2.15625 2.248 2.275116 2.24575 2.367375 2.33625 2.4145 2.369525 2.464316 2.421869 2.127129 1.99875 1.93475 1.968145 2.0885 2.129628 2.31725 2.245762 2.258199 2.166 2.211 2.24375 2.25075 2.426554 2.51825 2.3235 2.356946 2.42681 2.107417 2.06225 2.1005 2.236786 2.19425 2.178555 2.208875 2.341475 2.357 2.3085 2.35505 2.300109 2.355694 2.353343 2.239 2.33775 2.29125 2.497833 2.332 2.308806 2.4255 2.325 2.35975 2.281 2.1645 2.207 2.25375 2.19825 2.2155 2.2145 2.248 2.195 2.1895 2.1835 2.16175 2.09025 2.1225 2.11325 2.066 2.1155 2.02 2.011 1.9755 1.91625 1.8825 1.91175 1.90925 1.88525 1.8155 1.758 1.7185 1.59175 1.47075 1.4995 1.5115 1.481 1.50075 1.501 1.48125 1.47275 1.4565 1.46375 1.4585 1.441 1.4385 1.40625 1.4335 1.455 1.457 1.455 1.45775 1.43925 1.423 1.4015 1.41875 1.43025 1.40475 1.4155 1.3985 1.402 1.40775 1.384 1.38825 1.38925 1.36925 1.3625 1.35125 1.3355 1.3255 1.34275 1.34625 1.288 1.29375 1.29825 1.28275 1.27175 1.28125 1.2475 1.25125 1.23025 1.1835 1.13075 1.15125 1.0485 0.9915 1.0735 1.05775 0.99225 0.9355 1.041376 1.0925 0.985 1.0915 1.090314 1.054 1.02775 0.9751327 1.15175 1.071892 0.9935 0.97875 1.026666 1.1055 1.076 1.11225 1.01425 0.992 1.134 1.28325 1.125 0.907 0.9385 0.947 0.9685 0.9940298 0.9672841 1.070641 0.96425 1.14575 1.28225 1.3165 1.35875 1.2855 1.26825 1.28975 1.2885 1.030584 0.8952588 0.9562729 0.918 0.9396425 0.9715 0.9713904 1.0945 0.935187 0.93575 0.9495 0.97675 1.00382 0.9504099 0.969 0.9985 0.9615 0.9855 1.006 0.977 0.9836533 1.058 0.982 0.95575 0.969 0.977 1.00775 0.9758499 1.072 1.07675 0.99825 1.058528 0.93175 0.94625 0.9625 0.9765 0.98925 0.9485 1.102032 0.95475 0.95 0.9775 1.008 1.02225 0.98775 1.107395 1.02025 0.98025 0.98825 0.8905 0.9749 0.9695 1.016625 1.040713 1.028892 0.99275 0.99225 1.00575 1.04125 1.0475 0.985 1.01975 1.13289 1.089263 1.12675 1.05875 1.08025 1.14526 1.04925 1.1075 1.061497 1.0415 1.1065 0.99625 1.057 1.0035 1.093891 1.10525 1.02975 1.01075 1.03325 1.072 1.05 1.066639 1.122249 1.09125
2.2435 2.17581 2.198152 2.18125 2.221596 2.217885 2.31175 2.316967 2.343097 2.335 2.25 2.19725 2.2045 2.2035 2.175 2.280068 2.3295 2.25075 2.27225 2.21575 2.30025 2.199999 2.168181 2.215726 2.21475 2.233043 2.341174 2.39075 2.36125 2.35825 2.39425 2.494875 2.659969 2.75325 2.387624 1.838031 1.72475 1.76175 1.917396 2.146853 2.1995 2.15525 2.187 2.18075 2.315462 2.442923 2.347668 2.133549 2.049 2.132765 2.165356 2.22325 2.1835 2.2 2.196882 2.238509 2.281756 2.406808 2.471655 2.399 2.434185 2.258253 1.96625 1.8735 1.983123 2.0375 2.09 2.116 2.258 2.380729 2.613765 2.721512 1.887684 1.44075 1.267 1.1515 1.399905 1.585 2.220535 2.319773 2.141149 2.247543 2.304224 2.414241 2.55925 2.331197 2.133851 2.00475 2.019 2.094 2.383872 2.434 2.352218 2.486 2.4575 2.543 2.084621 1.78125 1.850171 2.017369 2.268 2.21025 2.0975 2.10875 2.08225 2.06475 2.09925 2.0525 2.20425 2.268061 2.0985 2.12575 2.053375 1.9505 1.92725 1.921 1.96825 2.0165 2.0575 2.100805 2.23225 2.10325 2.115445 2.24175 2.301 2.1615 2.2065 2.3435 2.37275 2.351 2.45425 2.353974 2.146 2.14475 2.1155 2.15675 2.178266 2.290895 2.269434 2.216267 2.248 2.1825 2.46025 2.509875 2.380451 2.3005 2.36425 2.34075 2.393333 2.178267 2.049183 1.94925 1.9845 2.03175 2.07925 2.122545 2.2265 2.1585 2.362081 2.320786 2.364921 2.3145 2.324485 2.424 2.349124 2.32825 2.19081 2.05475 2.09575 2.165 2.165 2.346232 2.4075 2.372487 2.317091 2.4185 2.34425 2.47125 2.45435 2.383808 2.3515 2.324 2.4065 2.35175 2.43475 2.419 2.4055 2.385 2.34475 2.261 2.25175 2.227 2.262172 2.216 2.32025 2.26975 2.29175 2.26325 2.296 2.2275 2.19075 2.162 2.11375 2.126721 2.0695 2.08025 2.04 2.022 1.99125 1.9985 1.9745 1.94075 1.9135 1.9125 1.899 1.84425 1.7955 1.6005 1.564 1.5435 1.51325 1.535 1.525 1.53625 1.51175 1.4775 1.447 1.46775 1.457 1.4295 1.4335 1.44425 1.44975 1.4325 1.454 1.4475 1.45025 1.48325 1.436 1.43 1.44275 1.44825 1.44825 1.42325 1.428 1.40975 1.413 1.4085 1.39375 1.389 1.38475 1.4 1.376 1.36975 1.37025 1.34675 1.347 1.32825 1.32875 1.316 1.3075 1.313 1.2995 1.32075 1.27525 1.28525 1.2795 1.23725 1.19925 0.994 0.9505 0.97475 1.115 1.207688 1.052 0.9715 0.97025 1.01225 0.99375 1.01375 0.992 1.0045 0.9915 0.98425 1.094 1.126 0.98725 0.96625 1.00225 1.07425 1.1565 1.144352 1.131274 0.99975 1.078 1.1945 1.069 0.94375 1.10575 1.06875 0.9615 1.11625 0.9991804 1.118071 1.157432 1.102078 1.23642 1.30775 1.3365 1.30125 1.2595 1.20575 1.22775 1.101 1.086431 1.120158 1.026875 1.0665 0.9973066 0.93925 0.97425 0.96925 1.02975 1.002508 1.000203 1.01 0.9625 1.071417 1.00125 1.016879 1.00094 0.9838527 0.961 0.98575 1.066815 0.9598165 1.00925 0.94425 0.956 0.9805 1.053471 1.05225 0.961 0.9595 0.949 0.93175 1.0075 0.95712 0.93675 0.94475 0.9335 1.0325 0.99975 0.9921296 0.99125 1.044558 1.0065 0.9790893 0.96025 0.911 0.99375 0.97125 0.9460834 0.97075 0.91475 0.99325 0.97875 0.966 0.9645 1.00575 1.00975 1.04225 1.054417 0.988 1.0445 1.076798 1.013715 1.081 1.053822 1.102 1.03375 0.96075 1.06575 1.103031 1.09625 1.083031 1.0635 1.0015 0.96175 1.11375 1.075167 1.03675 1.039 1.0075 1.040286 1.018 1.110266 1.042956 1.0605
2.2145 2.161807 2.190118 2.15225 2.09625 2.18275 2.19075 2.225071 2.30025 2.2955 2.2515 2.199 2.202 2.18925 2.17375 2.1815 2.21125 2.221 2.235769 2.288575 2.237146 2.397082 2.292196 2.25675 2.25125 2.28595 2.226645 2.264151 2.269178 2.357332 2.444261 2.429 2.54825 2.716311 2.273146 1.8615 1.716 1.826 1.888534 2.167649 2.133649 2.248227 2.266084 2.2415 2.20875 2.201847 2.261436 2.17828 2.07625 2.12 2.08403 2.24461 2.349766 2.215974 2.1905 2.330226 2.159511 2.226017 2.273434 2.309636 2.372097 2.041433 1.92622 1.89 2.06325 2.081223 2.229761 2.37025 2.303062 2.33675 2.63875 2.754022 2.194318 1.382445 1.22075 1.19425 1.35675 1.6395 1.984305 1.996938 2.05575 2.154654 2.331217 2.3815 2.393608 2.443746 2.160019 2.00625 2.03075 2.13 2.256884 2.245 2.383 2.496304 2.4795 2.59175 2.210485 1.7825 1.848497 1.8626 2.129637 2.163042 2.107785 2.189 2.151 2.14175 2.0725 2.12276 2.21675 2.1775 2.112316 2.207357 1.995085 1.92675 1.939 1.93375 1.965 2.104661 2.09875 2.09175 2.1285 2.07525 2.142973 2.3085 2.28825 2.174 2.1755 2.2235 2.351 2.31825 2.366523 2.33325 2.22571 2.328258 2.15475 2.281781 2.390505 2.335263 2.232 2.288 2.33354 2.36297 2.370715 2.336946 2.3365 2.37825 2.497 2.43975 2.438292 2.188831 2.04275 1.96 2.027841 2.091 2.128 2.214804 2.177 2.377577 2.47175 2.33925 2.25325 2.32425 2.29275 2.365218 2.42225 2.392223 2.11625 2.04925 2.1485 2.20521 2.3425 2.293875 2.31975 2.339741 2.42525 2.33275 2.366932 2.48275 2.53825 2.49159 2.35475 2.451 2.43525 2.29708 2.412 2.2985 2.3235 2.358 2.25175 2.32275 2.2845 2.22975 2.29125 2.233 2.249 2.25675 2.27725 2.29425 2.27475 2.31475 2.17125 2.09625 2.1045 2.116 2.1325 2.026 2.06325 2.0385 2.029 2.03775 1.964 1.9145 1.941 1.9165 1.91575 1.85575 1.805 1.58775 1.594 1.563 1.57025 1.588 1.5525 1.5205 1.505 1.4905 1.476 1.4725 1.46725 1.448 1.44625 1.3935 1.4085 1.437 1.45075 1.4705 1.46675 1.441 1.46125 1.45575 1.44 1.43675 1.44875 1.435 1.43675 1.4135 1.4255 1.40625 1.4035 1.40375 1.414 1.40775 1.37625 1.36625 1.37375 1.34575 1.361 1.368 1.34375 1.337 1.337 1.325 1.31875 1.3305 1.2905 1.3155 1.29475 1.26675 1.2035 1.062 1.033208 1.01425 1.06275 1.02625 0.99425 0.9208083 0.99975 1.145 1.114107 0.99425 0.9925 1.067 1.0355 0.939 0.934 0.93625 0.95325 1.018898 0.973 1.1065 1.093419 1.214266 1.063638 1.162257 1.1335 1.080224 1.103 0.9595 1.03825 1.0505 0.9739376 1.02325 1.119973 1.186084 1.148 1.010395 1.20975 1.25325 1.256881 1.261496 1.266 1.28975 1.2675 1.248 1.20625 1.100782 0.8927072 0.9608018 0.91225 0.9185 0.91275 0.9529951 1.132497 0.9538168 0.98075 1.03775 0.9851875 1.0135 0.934 0.997 1.02775 1.015801 1.078768 1.0125 1.087245 0.98825 0.9852794 0.9485 0.9595 0.96775 1.0405 0.99275 1.016227 1.01425 0.939 0.936 0.9715 0.987 0.96125 0.91475 0.9125 0.935 0.94825 1.021037 0.9535 0.97275 0.96425 0.95575 0.92075 0.88075 0.918 1.0305 1.040369 0.922 0.898 0.9145 0.90475 0.9255 0.9945 1.007 1.00225 1.02725 1.065708 1.02275 1.03575 1.041315 0.9995 1.046 1.07481 1.10875 1.04525 0.9895 1.01875 1.06575 1.04175 1.0205 1.10188 1.0535 0.99275 1.0255 1.064 1.02625 1.0215 1.049 1.0315 1.01275 1.0205 1.007 1.0075
2.313432 2.227201 2.1595 2.111868 2.16944 2.255021 2.179702 2.214 2.296 2.313102 2.281409 2.225 2.288 2.248 2.20825 2.2585 2.1725 2.1945 2.1935 2.233 2.244789 2.231574 2.267 2.24857 2.350695 2.392698 2.26575 2.3365 2.25825 2.311364 2.394459 2.30275 2.444363 2.586809 2.070283 1.78575 1.751 1.8295 2.004589 2.128164 2.1845 2.198555 2.292863 2.403638 2.28529 2.166473 2.22338 2.171219 2.09995 2.08575 2.06875 2.255083 2.254991 2.260332 2.249357 2.304683 2.076505 2.09175 2.042841 2.024155 2.141844 1.903139 1.798 1.8005 1.793434 2.003694 2.239155 2.3455 2.267698 2.505271 2.7085 2.834995 2.277758 1.327162 1.1545 1.21225 1.4155 1.677243 1.992011 2.159014 2.11325 2.17125 2.2315 2.408 2.385038 2.43675 2.312066 2.061 2.120152 2.1016 2.1205 2.17 2.406 2.39925 2.2925 2.4495 2.239854 1.809 1.8105 1.850409 1.9995 1.998 2.2353 2.239 2.173 2.168 2.1055 2.203688 2.11375 2.1545 2.134542 2.159644 2.03125 1.9415 1.9485 1.93825 1.9465 1.99775 2.0185 2.07575 2.089625 2.10775 2.116 2.34325 2.32565 2.18 2.218 2.3505 2.32675 2.29725 2.247 2.19475 2.496363 2.527266 2.302562 2.37629 2.33625 2.372889 2.414938 2.3985 2.3825 2.584354 2.40125 2.341462 2.3785 2.352 2.351 2.3715 2.482 2.190895 2.015 1.986 2.1425 2.0385 2.2994 2.443073 2.344 2.3305 2.40625 2.41775 2.34425 2.340507 2.396534 2.4385 2.55525 2.208655 2.073 2.104 2.231981 2.3365 2.351545 2.3185 2.4325 2.402562 2.393471 2.415038 2.46475 2.4355 2.5325 2.505526 2.477 2.416 2.4655 2.368865 2.50375 2.399947 2.50475 2.385563 2.360625 2.33725 2.3435 2.3915 2.31125 2.2835 2.286994 2.29825 2.304 2.3375 2.3735 2.361 2.231 2.1905 2.176 2.13625 2.087 2.06475 2.1045 2.081 2.07475 2.067 2.013 2.032 1.9835 1.91475 1.83175 1.77275 1.748 1.6505 1.573 1.5885 1.58425 1.601 1.5875 1.53625 1.5165 1.51 1.5035 1.4895 1.47375 1.4705 1.44525 1.463 1.45125 1.46175 1.4725 1.4675 1.4605 1.4615 1.4565 1.45025 1.45925 1.46075 1.45775 1.44 1.44125 1.4455 1.44075 1.41975 1.4185 1.42725 1.4235 1.4185 1.3705 1.39525 1.3765 1.3945 1.36975 1.36775 1.36375 1.3315 1.36575 1.33575 1.3245 1.328 1.3005 1.3245 1.27675 1.28025 1.2675 1.0895 1.070886 1.031591 1.03075 0.94075 0.947 1.026563 1.2065 1.286283 1.26425 1.0935 1.045147 1.05675 1.008451 0.91725 0.9075 0.9015 0.94675 1.05 0.989 1.0165 1.06225 1.23775 1.115526 1.06375 1.037 1.068061 0.923027 1.04649 1.119806 1.00025 0.98075 1.04775 1.227 1.18025 0.96725 0.95825 1.05725 1.21075 1.218338 1.219614 1.284069 1.28825 1.27 1.32075 1.2265 1.1375 0.909 0.8925 0.897 0.916 0.91975 0.90025 0.95875 0.95325 1.006695 1.001 1.02875 0.95625 0.9365 0.93825 0.97575 0.9977061 0.98375 0.966 1.03775 0.95625 0.93475 0.9185 0.96125 0.95525 0.9625 0.9565 0.9795 0.94525 0.977 0.94075 1.016 0.980825 1.014 0.91475 0.9175 0.972 0.9620834 1.033 0.93525 0.9355 0.95025 0.9115 0.906 0.92675 0.91475 0.8925 0.9395 0.911 0.903 0.90825 0.907 0.9695 1.00685 1.04475 0.972 1.01375 1.04925 0.96025 1.0055 1.01675 1.01825 1.0655 1.0185 1.006 0.98625 0.98225 0.9665 0.99775 1.00575 0.98525 1 0.97825 1.01975 1.0215 1.03875 1.0025 1.02975 1.024717 0.98525 0.97775 0.9875 1.055 1.05475
2.284517 2.275943 2.23825 2.159836 2.203082 2.267636 2.146 2.19675 2.290519 2.216148 2.280612 2.34025 2.27875 2.2535 2.2075 2.140928 2.23075 2.1925 2.17575 2.1895 2.28125 2.305746 2.26575 2.299521 2.395399 2.480155 2.269794 2.290812 2.291196 2.369174 2.434948 2.314 2.470208 2.560407 1.946897 1.79075 1.76125 1.868 2.060377 2.106174 2.161957 2.34375 2.308409 2.345173 2.294137 2.205929 2.13175 2.165518 2.155321 2.0965 2.09075 2.1295 2.225751 2.265553 2.27425 2.25855 2.135 2.117199 2.068231 2.0415 1.864487 1.8235 1.70975 1.6465 1.62325 1.554434 1.622074 1.854031 2.290621 2.68868 2.74275 2.8525 2.131654 1.359026 1.13325 1.297 1.4435 1.786299 2.101037 2.189071 2.13175 2.224 2.356736 2.336 2.3555 2.44475 2.310437 2.0685 2.0615 2.062 2.08125 2.16775 2.401122 2.34425 2.2245 2.415139 2.156104 1.9085 1.8345 1.8335 1.88575 1.944 2.1935 2.15375 2.235 2.12525 2.12575 2.10625 2.1065 2.04625 2.1515 2.015566 2.0075 1.9475 1.92475 1.9695 1.982 2.002 1.99325 1.97525 2.03825 2.06275 2.134664 2.280452 2.361524 2.23475 2.28175 2.33525 2.34725 2.31575 2.2505 2.19975 2.457175 2.369574 2.2735 2.40275 2.334151 2.38925 2.268 2.28875 2.3485 2.429551 2.408809 2.40925 2.38175 2.40175 2.38675 2.479418 2.4445 2.041649 1.9545 1.989 2.059711 2.22125 2.216065 2.4545 2.2845 2.339446 2.45925 2.361 2.399 2.3685 2.44175 2.584 2.402083 2.089122 2.0745 2.15425 2.354537 2.262075 2.40825 2.374866 2.4415 2.3735 2.414149 2.31575 2.5 2.49275 2.47275 2.517 2.558 2.505 2.4275 2.331534 2.552542 2.525614 2.465 2.50225 2.40225 2.411 2.3685 2.404 2.373553 2.36575 2.28275 2.3095 2.3505 2.410122 2.40975 2.30125 2.30025 2.33425 2.311 2.21375 2.12275 2.126 2.15175 2.14225 2.1245 2.1045 2.09925 2.091 1.9965 1.92475 1.816 1.769 1.75975 1.62975 1.57825 1.53075 1.54825 1.582 1.5765 1.553 1.55125 1.52625 1.52025 1.501 1.471 1.473 1.4355 1.45375 1.4585 1.4685 1.47075 1.46875 1.47925 1.47325 1.48625 1.46025 1.46025 1.47025 1.45925 1.46325 1.45125 1.451 1.445 1.43 1.42375 1.444 1.44125 1.41875 1.40675 1.40925 1.4145 1.4045 1.38925 1.39875 1.3735 1.34675 1.38525 1.37325 1.3355 1.33975 1.31925 1.327 1.2695 1.282 1.2635 1.15 1.1155 1.015 1.01275 0.94075 1.00475 0.99875 1.090535 1.063586 1.197 1.1555 1.05925 1.01825 1.088194 1.11025 1.027816 0.999599 1.134788 1.051105 1.125 1.08925 1.169417 1.12525 1.06725 1.1185 1.139924 1.173888 1.040091 1.31075 1.21375 1.02275 1.029796 1.01425 1.1265 1.079016 1.0165 0.962 1.063 1.213634 1.1265 1.22525 1.2985 1.2995 1.30575 1.3115 1.2445 1.136 0.97275 0.881 0.8745 0.9375 1.025833 0.94425 0.975 0.9224541 0.99275 0.91625 0.971 0.93625 0.92425 0.901 0.92025 0.95575 1.013167 1.029 0.94975 0.9285 0.9475 0.9415 0.9425 0.9465 0.95375 0.95825 1.000306 1.043 1.045204 0.9875 1.00175 0.98775 0.96075 0.9245 0.91375 0.98425 0.9749375 0.97425 0.9346437 0.9335 0.92325 0.904 0.9282616 0.9683115 0.93325 0.8945 0.90975 0.945 0.937 0.94775 0.9925 0.96125 0.9195 0.934 0.99275 0.94 1.042925 0.964 0.983 1.00275 1.04525 1.10025 0.9885 0.9905 1.01 1.01075 1.097783 1.028 1.01025 0.979 1.04975 0.9715 0.989 0.99025 1.01575 1.003 0.96825 0.98125 0.95425 1.0245 1.02575 1.003 1.023
2.250456 2.298612 2.219534 2.080544 2.113468 2.20625 2.203306 2.27225 2.231601 2.12988 2.15248 2.152091 2.170105 2.253504 2.198088 2.177186 2.199574 2.1845 2.1625 2.18275 2.21675 2.282595 2.26025 2.325242 2.30475 2.253907 2.201656 2.185114 2.221118 2.3385 2.343592 2.3385 2.182789 2.170117 1.876627 1.771 1.761 1.8525 2.098753 2.216381 2.279311 2.257 2.235 2.19625 2.25375 2.257964 2.1795 2.1275 2.111 2.101 2.19775 2.1305 2.159 2.202 2.301846 2.15334 2.111 2.185541 2.123656 2.027135 1.756 1.68225 1.574 1.5335 1.4875 1.42275 1.425 1.437157 1.908361 2.394328 2.635068 2.53475 1.742816 1.38651 1.17625 1.30325 1.56175 1.808 2.108975 2.270537 2.15175 2.157 2.2095 2.32225 2.26425 2.409715 2.331071 2.09675 2.062 2.0725 2.0935 2.14125 2.273625 2.22075 2.2035 2.3515 2.334145 1.94125 1.86075 1.9035 1.902 1.88925 2.101152 2.142149 2.21725 2.09575 2.13 2.1225 2.142059 2.0685 2.087 2.003 1.961 1.96575 1.94275 1.97825 2.056087 2.082 2.07125 2.035 2.012 2.08425 2.26075 2.176 2.19125 2.16225 2.1235 2.217 2.20175 2.404961 2.306477 2.293 2.33775 2.43425 2.357151 2.384738 2.40986 2.397321 2.26075 2.325 2.3045 2.44675 2.33675 2.34425 2.44 2.34775 2.4255 2.49475 2.57575 2.126473 1.94325 2.02975 2.08434 2.195813 2.255166 2.3425 2.342375 2.3815 2.3735 2.320468 2.37825 2.397125 2.39525 2.505956 2.386506 2.0775 2.13 2.224599 2.2835 2.27525 2.30275 2.36325 2.2745 2.380375 2.482 2.326 2.40575 2.558568 2.5645 2.58925 2.566 2.6005 2.382 2.3585 2.54896 2.571 2.4535 2.432 2.46275 2.45359 2.3895 2.380554 2.365286 2.48325 2.35175 2.3495 2.42775 2.4205 2.348 2.3375 2.298 2.24225 2.1535 2.20575 2.22225 2.17375 2.17925 2.24075 2.1725 2.1295 2.11425 2.10325 1.993 1.9535 1.877 1.86325 1.81125 1.74075 1.66125 1.54225 1.56975 1.57925 1.55775 1.54675 1.56525 1.538 1.50475 1.4945 1.47425 1.451 1.36825 1.43125 1.45975 1.481 1.47425 1.47075 1.4875 1.4905 1.49725 1.48825 1.4755 1.4875 1.47875 1.4845 1.44925 1.47 1.4455 1.43775 1.4395 1.43575 1.43975 1.43325 1.43325 1.43 1.41725 1.4185 1.3855 1.4015 1.38825 1.3875 1.402 1.35525 1.361 1.3635 1.3345 1.35175 1.31075 1.3135 1.2735 1.24275 1.19575 1.1775 1.2115 0.984 1.0055 0.98725 0.9975 1 0.954 1.0775 1.0545 1.01125 0.97275 1.024131 1.058557 1.199 1.17025 1.01125 1.02575 1.06 1.039752 0.96175 0.93625 1.1045 1.082544 1.251 1.243818 1.238 1.08375 1.0165 1.127117 1.15125 0.968432 1.065813 0.94875 1.0495 0.96525 0.992 0.98925 1.193 1.29 1.27025 1.2895 1.28125 1.3215 1.300395 1.192655 1.016532 0.960634 0.9745 1.01475 0.967 1.00025 1.028477 0.9584315 0.8985 0.9035 0.89575 0.94275 0.9849265 0.96625 0.95875 0.9755 0.94375 0.9325 0.9455 1.009844 0.9505 0.942 0.935 0.92775 0.91375 0.93 0.98675 0.99125 0.9525 0.94775 1.004375 1.044167 0.9315 0.9275 0.93025 1.01775 0.919 0.904 0.902 0.885 0.91 1.0235 0.9530463 0.93975 0.9135 0.91075 0.95775 0.95375 0.94475 0.99175 0.98775 0.9445 0.90125 0.9350166 0.946595 0.95725 0.967 0.967 0.98975 1.0145 1.00725 1.0589 1.07525 1.003 1.02375 1.0915 1.033 0.98875 0.95675 1.019 0.95575 0.98725 1.012 1.004 1.043695 1.03075 1.039092 1.00475 0.9845 1.08854 1.039 0.99
2.3065 2.337296 2.238292 2.089311 2.07225 2.129129 2.212509 2.249732 2.125891 2.123 2.08625 2.085185 2.15425 2.10716 2.141819 2.180528 2.206 2.17775 2.159 2.1875 2.18225 2.184418 2.253 2.366286 2.27925 2.15925 2.185 2.096762 2.1667 2.50225 2.414028 2.641 2.070926 1.949349 1.87975 1.77425 1.79025 1.952537 2.213364 2.31044 2.286 2.237 2.20875 2.19 2.1785 2.1595 2.216 2.214835 2.121 2.152 2.294639 2.231 2.198 2.258399 2.347204 2.260445 2.126 2.26825 2.077805 1.861971 1.673649 1.5595 1.5065 1.486 1.48325 1.58325 1.449 1.3635 1.473383 1.696461 2.037167 1.958841 1.505545 1.2725 1.20175 1.36425 1.552 1.824297 2.171491 2.24375 2.255367 2.253 2.20175 2.243369 2.4495 2.33475 2.257981 2.1575 2.109 2.091 2.101 2.12425 2.15325 2.1675 2.2125 2.34192 2.41334 1.91675 1.87025 2.0495 2.05825 1.957556 2.03775 2.055219 1.99075 2.06475 2.108 2.12475 2.128154 2.199726 2.109671 2.027966 1.97375 1.9735 1.94625 2.018 2.222009 2.31175 2.171357 2.12225 2.03825 2.02375 2.09525 2.139904 2.24825 2.158185 2.1375 2.22025 2.234 2.444374 2.465665 2.414348 2.33825 2.38475 2.482326 2.486612 2.447669 2.350466 2.311 2.354307 2.345431 2.35425 2.36475 2.508893 2.40725 2.44325 2.342 2.41775 2.278028 1.97022 1.96925 2.16699 2.248214 2.155784 2.245667 2.317 2.341 2.48025 2.445577 2.32 2.35875 2.406 2.4325 2.4865 2.317874 2.107 2.07425 2.11925 2.2285 2.256747 2.348446 2.43025 2.386993 2.5305 2.513 2.49725 2.583 2.61075 2.6235 2.55525 2.661 2.554221 2.38807 2.50875 2.612 2.44325 2.50375 2.47905 2.446 2.49375 2.494012 2.48775 2.454231 2.36975 2.399423 2.477 2.47325 2.42075 2.4645 2.331781 2.28875 2.31825 2.243 2.278 2.382 2.23675 2.226 2.121 2.1345 2.216 2.1735 2.1155 2.00575 1.96725 1.912 1.91125 1.858 1.79525 1.77275 1.68325 1.64175 1.59925 1.6145 1.5935 1.5565 1.49125 1.5035 1.5085 1.496 1.44875 1.388 1.41725 1.44925 1.47675 1.49175 1.485 1.478 1.48925 1.5075 1.48925 1.4735 1.4855 1.48 1.488 1.4545 1.45475 1.4505 1.456 1.4565 1.42775 1.4495 1.44075 1.45 1.43125 1.41375 1.43625 1.393 1.4045 1.4 1.39825 1.4045 1.37575 1.37925 1.365 1.3485 1.343 1.3255 1.33975 1.3105 1.285 1.24 1.0845 1.0815 1.024607 1.14575 1.1445 1.07225 0.9843535 1.01525 1.0235 1.19285 1.11775 0.9973018 0.94725 1.030286 1.085897 0.97975 1.0285 1.01875 0.99475 0.9204551 0.97325 0.948885 1.06725 0.98025 1.117739 1.35175 1.180452 1.00125 0.95575 0.977 0.969 0.9715 1.143 1.12175 1.151714 1.03775 0.9815 0.99175 1.099 1.16475 1.11325 1.182 1.2305 1.3261 1.444656 1.348626 1.258025 1.187142 1.082969 0.9798928 0.9255 0.95825 0.955 0.9145 0.94225 0.911 0.9385 0.92675 1.02165 0.99075 1.041006 0.93175 0.95275 0.90575 0.97925 0.9861786 0.92475 0.9495 0.91025 0.89625 0.90425 0.98675 1.039 0.9871614 1.031 1.004 0.9691667 1.036 0.97975 0.95475 0.91775 0.911 0.91625 0.925 0.89875 0.897 0.9435 0.93175 0.9425 1.020286 0.9315 0.9265 0.94675 0.9525 0.93175 0.996 1.1675 1.186 1.018875 0.9237603 0.9532667 0.95275 0.95125 0.959 0.9585 0.97 0.97875 1.036 1.00575 0.9835 0.99725 1.002 0.99175 0.992 0.95625 0.96375 0.9935 0.9775 0.979 0.9725 1.0205 0.973 1.127578 1.02075 0.97375 1.02175 0.98475 1.04275
2.221 2.267326 2.128782 2.042745 2.057 2.089936 2.056359 2.077014 2.10625 2.0825 2.115643 2.141467 2.14922 2.102 2.12875 2.153 2.18625 2.242049 2.1535 2.16175 2.166 2.241939 2.215372 2.145752 2.17875 2.16 2.175795 2.171278 2.128334 2.448674 2.470413 2.261567 1.95622 1.878499 1.8375 1.76525 1.82425 2.08407 2.377177 2.436494 2.301454 2.28625 2.31275 2.265 2.17775 2.16175 2.1625 2.13 2.13675 2.1665 2.2195 2.1805 2.327 2.487765 2.601518 2.516497 2.206861 2.193555 1.972248 1.699481 1.536914 1.5165 1.570495 1.740561 1.844297 1.889896 1.648848 1.441 1.363 1.348738 1.49951 1.392257 1.259813 1.2025 1.2795 1.419 1.571 1.935914 2.206847 2.258534 2.2785 2.3855 2.20375 2.291475 2.44675 2.3935 2.401141 2.321791 2.16125 2.11625 2.122 2.13825 2.14075 2.2205 2.252842 2.374 2.224183 1.952335 1.906 2.026311 2.0715 1.9385 1.9265 1.95025 2.001 2.059 2.06925 2.17725 2.20225 2.224 2.260191 2.039869 2.0145 1.9725 1.96975 2.048036 2.203774 2.214783 2.16225 2.0745 2.051 2.043 2.02925 2.07025 2.196 2.13425 2.1555 2.236564 2.2225 2.420026 2.399927 2.25725 2.279 2.305 2.520903 2.57275 2.421 2.36425 2.33375 2.38125 2.391 2.36675 2.35325 2.517854 2.409789 2.486 2.48575 2.44517 2.007703 1.976 1.98075 2.330414 2.404887 2.22425 2.31325 2.306 2.400728 2.34505 2.34275 2.408991 2.44975 2.46925 2.474 2.342878 2.161834 2.11175 2.09025 2.133 2.132 2.229 2.392183 2.4905 2.43125 2.403407 2.476771 2.6295 2.62625 2.6635 2.606 2.630463 2.61375 2.498 2.4875 2.5725 2.53275 2.471 2.43775 2.453386 2.47725 2.614024 2.565 2.58625 2.4785 2.350252 2.466373 2.497 2.47975 2.3685 2.456 2.38625 2.381 2.33425 2.318 2.29075 2.30875 2.29425 2.21575 2.211 2.127 2.1925 2.1335 2.11325 2.04425 2.01775 1.959 1.9345 1.896 1.82875 1.77075 1.74375 1.75325 1.74325 1.75075 1.685 1.58275 1.49075 1.52725 1.502 1.499 1.458 1.4335 1.4685 1.4635 1.4855 1.5055 1.51 1.50425 1.491 1.5015 1.48625 1.497 1.47925 1.501 1.49125 1.46325 1.49075 1.48575 1.46625 1.451 1.4635 1.46025 1.43975 1.4475 1.43 1.42675 1.4455 1.407 1.43025 1.41175 1.4145 1.417 1.38225 1.4025 1.39 1.352 1.3635 1.35275 1.35625 1.32425 1.3295 1.242909 1.09725 0.98925 1.03125 1.20175 1.23425 1.143412 1.001239 1.165603 1.177297 1.11575 1.07575 0.953 0.98125 0.9468229 1.0285 0.98025 1.153261 1.2415 1.18625 0.99125 1.02875 1.069849 1.10375 0.96 1.1285 1.182917 1.026091 0.98825 0.9935 0.99025 0.96575 1.06925 1.255 1.089071 1.159607 1.057 0.97925 0.94875 0.9982692 1.0555 0.97025 1.04425 1.163963 1.256569 1.308062 1.237236 1.275875 1.215709 1.137463 0.986 0.947 1.032478 0.997375 0.9905 0.98525 0.94875 0.9335 0.9375 0.95575 0.9925 0.9985 0.917 0.951 0.924 0.91925 0.93975 0.9588333 1.04 0.9055 0.91225 0.9345 0.9567911 1.011 1.013347 1.086 0.9575 0.948 0.96075 0.9755147 1.0995 0.9814706 0.9962046 1.001598 0.9857222 0.9685 0.9654286 0.92575 0.91025 0.89075 0.97975 0.92975 0.91175 0.922 0.94125 0.9405 1.00775 1.191875 1.24225 1.05725 0.911 0.90175 0.935 0.94175 0.93875 0.94225 0.9735 0.9865 0.987 0.9745 0.946 1.0535 0.9668334 0.98475 1.01125 1.007 0.96275 1.00775 1.0255 0.9815 0.97825 1.0175 0.9841134 1.096843 1.005 0.99025 0.97225 0.96475 0.9965374
2.215 2.130646 2.089585 2.017805 2.101781 2.088131 2.00431 2.0625 2.108276 2.203 2.2745 2.162519 2.191601 2.132 2.204583 2.1325 2.167 2.2345 2.175 2.15375 2.156 2.35025 2.182282 2.17125 2.1635 2.129 2.254912 2.238565 2.056924 2.034503 2.074014 2.019807 1.905367 1.902 1.83425 1.7975 1.873 2.005965 2.203283 2.34046 2.373313 2.38275 2.267459 2.32425 2.212 2.272933 2.3445 2.181 2.1745 2.2735 2.171 2.14275 2.239144 2.446953 2.6795 2.497564 2.2005 2.388319 2.046892 1.631838 1.58025 1.57 1.78125 2.060483 2.370707 2.398255 2.158287 1.80129 1.512374 1.329 1.329 1.2295 1.2015 1.23325 1.30675 1.456 1.62825 1.891066 2.251691 2.21225 2.285042 2.300544 2.2955 2.34544 2.384611 2.38475 2.362 2.2445 2.14 2.13325 2.14475 2.1505 2.158 2.2015 2.282906 2.342 2.243402 2.033715 1.941 2.014021 2.085667 1.957 1.92325 1.9545 2.00975 2.059 2.10575 2.104 2.1335 2.23725 2.195906 2.031341 1.9655 1.967 1.9725 2.070363 2.251726 2.185 2.1855 2.076 2.13825 2.0975 2.0485 2.02675 2.0695 2.09725 2.10575 2.15725 2.1975 2.36875 2.28 2.30075 2.28325 2.2185 2.351222 2.41149 2.3385 2.396252 2.3845 2.32075 2.296 2.4055 2.4 2.50175 2.3815 2.538627 2.584 2.376551 2.01125 2.0095 2.202688 2.49556 2.47825 2.23325 2.23075 2.329 2.3535 2.28375 2.39965 2.359 2.53722 2.555179 2.430666 2.264597 2.13075 2.268513 2.134 2.248155 2.20343 2.12675 2.255246 2.431681 2.35025 2.45975 2.4795 2.67025 2.61975 2.64325 2.57175 2.482573 2.46909 2.603 2.516 2.53425 2.587063 2.45275 2.44275 2.40825 2.558933 2.6085 2.57025 2.539732 2.3135 2.402839 2.451 2.428935 2.34925 2.47225 2.4545 2.401 2.4475 2.35175 2.36625 2.305 2.26225 2.2535 2.27 2.337 2.28225 2.2205 2.22275 2.1835 2.11475 2.068 2.043 2.0165 1.897 1.90175 1.826 1.81375 1.81175 1.8225 1.81625 1.724 1.656 1.6285 1.565 1.53075 1.48325 1.439 1.406 1.4435 1.4575 1.51275 1.511 1.5185 1.52025 1.50775 1.51 1.48825 1.4945 1.4755 1.50225 1.48925 1.47975 1.51175 1.48425 1.478 1.48575 1.4655 1.47575 1.45675 1.452 1.436 1.44 1.45675 1.45275 1.44475 1.4335 1.41175 1.44175 1.425 1.4265 1.3835 1.3845 1.381 1.385 1.37625 1.351 1.33825 1.3085 1.224022 1.13875 1.09375 1.021576 1.080855 1.199307 1.153487 1.273 1.24025 1.065 1.067824 1.0395 0.931 1.00725 0.99525 1.02625 1.19875 1.2045 1.130839 1.03225 0.97 1.119629 1.072 1.09925 1.23 1.097104 1.018553 1.103988 1.021681 1.164106 1.155 1.160875 1.05725 1.12575 1.04975 0.95425 0.95175 0.98725 1.06475 1.11525 1.08325 1.0865 1.127875 1.187143 1.152515 1.175812 1.240543 1.248349 1.161489 1.018937 0.9697823 0.9515 0.9599375 0.94375 0.9115 0.92775 0.93175 0.939 0.959 0.9875 0.929 0.9435 1.048875 0.90325 0.89575 0.92125 0.9807813 0.99125 0.89975 0.88425 0.9985 0.98125 1.035942 0.99175 0.995 0.98025 0.9635 0.94125 0.946 0.951 0.95575 0.96375 0.94025 0.98825 0.9825 0.97425 0.938 0.9175 0.908 0.92625 0.91125 0.904 0.92575 1.023169 0.91075 0.94025 1.02625 1.06 0.9805 0.9015 0.92 0.9850313 0.98425 0.92325 0.9445 0.96475 0.96825 0.9835 0.94175 0.99 1.03325 1.024 1.02975 1.09475 1.01875 0.983 1.025291 1.18475 1.026813 1.02075 0.98175 0.98475 0.98175 0.99675 0.98375 0.92775 0.981 0.9755
2.236 2.09225 2.06 1.99479 2.045413 2.00094 2.013667 2.006 2.158295 2.25639 2.146862 2.188557 2.19425 2.22375 2.2105 2.145 2.16525 2.172344 2.1485 2.1575 2.12025 2.195 2.15925 2.111 2.13025 2.204213 2.302085 2.218874 2.069179 2.0355 1.9825 1.94725 2.01525 1.9895 1.849 1.82725 1.93 1.93025 2.168417 2.280942 2.318234 2.336483 2.431974 2.328296 2.26844 2.377 2.348977 2.19175 2.16125 2.270083 2.229197 2.20825 2.14 2.349185 2.595161 2.327116 2.24075 2.455213 2.132602 1.671798 1.624 1.6995 1.998677 2.417489 2.57975 2.527642 2.658844 2.572158 2.102987 1.668232 1.405 1.28725 1.24875 1.30425 1.43125 1.52745 1.63325 1.831841 2.043373 2.123066 2.161225 2.338175 2.280568 2.378218 2.369 2.39825 2.266548 2.21025 2.1965 2.17825 2.1665 2.196 2.17425 2.179 2.29875 2.3175 2.139375 2.059 1.934 1.9645 1.984771 1.954 1.97475 2.001 2.09675 2.0775 2.114719 2.07475 2.1035 2.22775 2.20492 2.062534 2.00325 1.97875 1.987 2.011792 2.144887 2.174774 2.08425 2.1055 2.10725 2.091 2.07575 2.048 2.08425 2.077 2.1185 2.1345 2.22175 2.314337 2.32125 2.35325 2.342 2.2075 2.24125 2.2685 2.30875 2.32775 2.45975 2.34125 2.253 2.31825 2.34425 2.3605 2.461102 2.456 2.236221 2.055977 2.0085 2.04625 2.44925 2.525 2.508 2.3215 2.363353 2.30975 2.2975 2.30725 2.380518 2.46384 2.575531 2.36251 2.280657 2.27375 2.1095 2.313508 2.431501 2.491885 2.279841 2.156 2.259219 2.381 2.3495 2.374 2.577 2.596 2.6725 2.681462 2.50925 2.40093 2.535 2.5605 2.58675 2.55975 2.59425 2.47125 2.559 2.59225 2.56025 2.5805 2.64175 2.456829 2.323103 2.43525 2.441 2.337986 2.410435 2.46825 2.426 2.384083 2.406924 2.246 2.30225 2.24925 2.234 2.3005 2.291 2.319948 2.312 2.1845 2.1355 2.1925 2.17075 2.1445 2.08975 2.05525 1.96325 1.949 1.915 1.885 1.8935 1.863 1.87175 1.749 1.7565 1.771 1.7085 1.6905 1.52125 1.4145 1.42475 1.475 1.51975 1.54075 1.54125 1.525 1.52425 1.53175 1.5385 1.50125 1.50875 1.502 1.51125 1.4945 1.48475 1.50825 1.48575 1.4835 1.4735 1.48 1.4615 1.4465 1.463 1.46 1.458 1.4585 1.44175 1.4585 1.43775 1.45025 1.42725 1.442 1.41925 1.40025 1.40425 1.40175 1.3835 1.3785 1.36425 1.3595 1.33125 1.28475 1.233 1.13575 1.02175 0.977 1.03175 1.094 1.040402 0.9723937 0.99925 0.98825 1.00675 0.92075 0.894 0.974 1.198413 1.06325 0.988 1.04625 1.0235 0.94025 1.153764 1.1195 1.1395 1.14275 0.998629 1.0215 1.08125 1.069716 1.145 1.2815 1.1255 0.9865 1.01375 1.0725 1.00775 0.9805 1.00925 1.195365 1.21975 1.20575 1.1135 1.123875 1.11729 1.102867 1.072176 1.182517 1.251639 1.116738 0.9376484 0.9029029 0.88225 0.88875 0.90925 0.9355 0.9808 0.945 0.92175 0.95525 0.9506957 0.9692926 0.99725 1.0345 0.95679 0.9395893 0.9696563 0.98475 0.9035 0.87875 0.93725 0.9460625 1.005 0.947 0.938 0.93275 0.92475 0.95325 1.015 1.02875 0.946 0.90175 0.99075 0.9622717 0.9345 0.98075 0.9481071 0.98725 0.90225 0.89425 0.8875 0.90075 0.8975 0.89575 1.055417 0.9735 0.95875 1.079167 1.002 1.061 1.016 0.99175 0.9654305 0.99175 0.9755 0.94475 0.9485 0.9635 0.961 0.954 0.95325 1.00275 0.98625 0.97975 0.982 0.996 0.96475 1.0605 1.03425 0.98075 1.069931 1.028 0.9555 0.96875 0.9675 0.9625 0.95325 0.9611841 0.9976281
2.17325 2.1195 2.126154 2.085 1.98975 1.943221 1.997054 1.97425 2.050729 2.152 2.097831 2.399239 2.326505 2.257734 2.21675 2.14775 2.192 2.287 2.19675 2.2125 2.136 2.14625 2.1085 2.101 2.08625 2.0875 2.200737 2.065138 1.972017 1.966151 1.96211 1.984322 1.954492 1.93925 1.81125 1.861 1.939547 2.001 2.294679 2.379395 2.359486 2.356 2.353793 2.279 2.22175 2.2165 2.17675 2.145 2.159 2.141 2.167 2.11125 2.07525 2.20278 2.35796 2.271222 2.238954 2.409149 2.046552 1.64275 1.628 1.8405 2.427896 2.499014 2.51675 2.602159 2.671 2.666021 2.569766 2.288543 1.597872 1.318545 1.25225 1.34975 1.57475 1.6935 1.64225 1.670006 1.788865 1.805669 1.858368 1.971424 2.038042 2.287809 2.488606 2.380481 2.320709 2.288764 2.21675 2.22325 2.27225 2.2795 2.226 2.19225 2.260547 2.308589 2.335407 2.140804 1.976 1.94125 1.942 1.94175 1.9895 1.986 1.98675 2.01575 2.06625 2.07625 2.102561 2.177612 2.096597 2.206 2.031 1.97925 1.96675 1.95975 2.02497 2.129914 2.09825 2.172 2.12375 2.11575 2.1115 2.089 2.1765 2.099 2.118 2.22775 2.162 2.20575 2.201 2.2985 2.3125 2.211 2.26175 2.24925 2.36125 2.42975 2.296032 2.34325 2.452109 2.39575 2.373 2.454 2.50225 2.502 2.166589 1.97625 1.98675 2.05425 2.54482 2.5355 2.3495 2.256458 2.306 2.27225 2.348473 2.38075 2.438468 2.5835 2.5425 2.435318 2.185676 2.17975 2.283633 2.414065 2.430561 2.458471 2.252235 2.2725 2.38975 2.455 2.45425 2.5495 2.62575 2.6255 2.66175 2.603821 2.427 2.5595 2.57275 2.59825 2.622 2.5325 2.636 2.65 2.6495 2.528271 2.491458 2.3755 2.365672 2.260414 2.26825 2.454747 2.43675 2.3635 2.376 2.375 2.3815 2.425 2.41 2.309735 2.302 2.3715 2.258 2.295 2.28625 2.262 2.2125 2.162 2.22 2.21975 2.19575 2.17325 2.13075 2.08325 1.97125 1.90325 1.9235 1.91325 1.9225 1.86375 1.84925 1.799 1.79175 1.8545 1.7995 1.689669 1.47175 1.3795 1.47975 1.505 1.521 1.5425 1.54025 1.53175 1.5285 1.55125 1.5345 1.52175 1.51175 1.505 1.514 1.5065 1.5185 1.529 1.4725 1.4855 1.4785 1.484 1.4655 1.45975 1.486 1.4635 1.46175 1.4525 1.46225 1.46575 1.4335 1.42675 1.44725 1.431 1.4415 1.4135 1.41125 1.3915 1.40025 1.393 1.36275 1.37575 1.34475 1.31575 1.26825 1.17075 1.03225 1.10075 1.11815 1.0165 1.0555 0.95825 0.95975 1.01 0.98775 0.95575 0.9395 0.98575 1.13825 1.03525 0.91925 0.99675 1.09475 1.042415 1.04075 1.0245 1.03975 1.038715 1.053518 1.172 1.293986 1.102536 1.04575 1.14025 1.06775 0.96675 0.97725 1.17975 1.26796 1.1295 1.128 1.298196 1.27275 1.252453 1.17225 1.1775 1.12925 1.024831 1.053916 1.12424 1.187184 1.031613 0.9548788 1.00954 0.888 0.8875 0.88725 0.92 0.961 0.89575 0.92625 0.90025 0.92225 0.92225 0.93275 0.95675 0.9449464 1.059429 1.01225 0.935 0.9305 1.016625 1.036156 0.89625 0.9115 0.94475 0.9584633 0.95825 0.9185 1.027 1.026477 1.045735 0.98075 0.904 0.9245 0.93725 0.91875 0.9505 1 0.9533362 0.9718707 0.924 0.9165 0.906 0.899 0.88975 0.9792976 0.90725 0.92875 1.01825 0.9975 1.013526 1.057 1.008 1.08025 0.96125 0.948 0.917 0.9075 0.94975 0.95425 0.92525 0.93175 0.97025 0.974 1.06 0.97275 1.068944 0.9556434 1.014184 0.981 0.94175 0.98625 0.98125 0.98 0.971 0.979 0.973 0.9635 0.96025 1.00125
2.22975 2.13825 2.090426 1.947733 1.90775 1.912 1.94 1.94975 1.980129 2.0345 2.172 2.643959 2.472505 2.323497 2.2235 2.16925 2.196 2.21275 2.1885 2.1785 2.149 2.161 2.12175 2.108 2.0845 2.123125 2.110908 2.039953 2.023722 1.971818 2.103637 2.00189 1.929306 1.85125 1.84875 1.972281 2.088653 2.11875 2.177668 2.26491 2.366109 2.369583 2.297743 2.266 2.186 2.194 2.1785 2.147 2.1335 2.12175 2.125 2.07375 2.0525 2.07625 2.184405 2.225042 2.24 2.113508 1.882228 1.6405 1.7065 2.384009 2.67207 2.5885 2.651 2.737 2.620547 2.55375 2.68325 2.505806 1.735263 1.371105 1.36525 1.4135 1.64975 1.966422 1.93 1.84525 1.78375 1.871 1.896 1.83675 1.93775 2.018137 2.175798 2.244521 2.413505 2.4257 2.439616 2.474 2.441445 2.3075 2.22675 2.19725 2.318 2.435941 2.526174 2.235571 1.9935 1.96925 1.95875 1.97575 1.98175 1.992 2.012 2.04875 2.076 2.061 2.0385 2.05375 2.0695 2.037 2.02025 1.976 1.9715 1.9685 2.036164 2.21828 2.20675 2.14475 2.20475 2.22725 2.16675 2.083 2.089 2.0925 2.11075 2.12375 2.1685 2.212 2.1955 2.163 2.16725 2.19 2.22575 2.216 2.277145 2.2845 2.2505 2.2995 2.5655 2.5825 2.595861 2.43975 2.38175 2.318661 2.08335 1.98925 2.0025 2.111389 2.407111 2.4525 2.37975 2.29578 2.352774 2.3205 2.3995 2.35225 2.435657 2.525278 2.367617 2.213044 2.226306 2.313322 2.35175 2.430057 2.45975 2.356678 2.2855 2.267 2.382837 2.514 2.57825 2.63575 2.65225 2.6435 2.63775 2.438091 2.47825 2.5845 2.6015 2.66675 2.5935 2.58175 2.65275 2.60575 2.60225 2.59875 2.498869 2.36 2.3665 2.396694 2.422 2.46715 2.39775 2.361 2.4075 2.497484 2.466 2.43875 2.535 2.2955 2.335 2.286703 2.323 2.406 2.27825 2.34325 2.29875 2.274 2.2155 2.238 2.229 2.1785 2.141 2.1025 2.025 1.98125 1.85175 1.88075 1.861 1.83175 1.7915 1.7785 1.817 1.8525 1.635556 1.412203 1.40375 1.42975 1.53325 1.55025 1.5685 1.54775 1.5435 1.55675 1.5525 1.54725 1.535 1.52975 1.51025 1.516 1.53675 1.5165 1.5135 1.52325 1.5075 1.49875 1.46975 1.48675 1.496 1.485 1.488 1.46575 1.4825 1.45975 1.47175 1.4735 1.479 1.47075 1.462 1.44275 1.4365 1.41975 1.421 1.40925 1.42725 1.407 1.3865 1.39925 1.36175 1.34825 1.2935 1.264 1.2115 1.17175 1.1015 1.20775 1.09125 0.965 1.00675 1.189878 1.1045 1.00325 0.94625 0.9655 1.00725 0.9945 0.9925 1.005 1.08825 1.041195 1.027 0.9295 0.9703708 0.98425 1.15275 1.2355 1.123341 1.0695 1.047996 0.9709153 1.01805 0.92375 0.9455 1.11175 1.265 1.293 1.240603 1.20425 1.16875 1.000587 1.0735 1.15875 1.1545 0.96375 0.98775 0.9836787 1.054801 0.9379324 0.9156692 0.9166718 0.93925 0.96575 0.9485 0.92025 0.9055 0.90925 0.9564013 0.90375 0.93525 0.91525 0.94625 0.9969274 0.92875 0.9915084 0.9673854 0.97575 0.93625 0.94025 0.9925 0.90425 0.89475 0.9035 0.91675 0.92875 0.91825 0.941 0.957 1.04525 0.952 0.90825 0.92725 0.89875 0.9235 0.94125 0.963 0.921 0.90625 0.90025 0.9425 0.9591607 0.8905 0.90075 0.8945 0.8965 0.92975 0.91775 0.9365 1.006871 1.1175 0.987 1.003688 1.06425 0.9005 0.87875 0.89925 0.93075 0.9135 0.88825 0.919 0.94175 0.96825 0.9895 0.94575 1.003083 1.02675 0.98775 0.96375 1.0015 0.972 0.96375 0.98225 0.998 0.98875 0.98675 0.97075 0.92275 1.010011
2.211878 2.123462 1.992631 1.942148 1.866277 1.85175 1.92125 1.8835 1.94325 2.024103 2.164531 2.275045 2.247044 2.254 2.21675 2.15925 2.20925 2.1895 2.20425 2.269527 2.26029 2.205666 2.145 2.13875 2.1135 2.189 2.169317 2.04975 2.080583 2.138968 2.308901 2.012556 1.924653 1.8375 1.85275 2.008409 2.119573 2.18425 2.105268 2.193444 2.4042 2.315465 2.247442 2.26525 2.246 2.268545 2.18475 2.2175 2.16075 2.12275 2.1435 2.06825 2.036 2.0345 1.994894 2.148518 2.178801 1.930706 1.73065 1.663 1.743272 1.977837 2.522976 2.572983 2.60875 2.6015 2.535794 2.60575 2.703395 2.160699 1.481415 1.321 1.39875 1.5615 1.7995 2.068712 2.229461 2.129221 2.069297 2.103223 2.132395 2.07034 1.940396 1.95025 2.11825 2.198656 2.26086 2.3465 2.4135 2.4215 2.3785 2.334523 2.270546 2.2035 2.408558 2.5905 2.517346 2.18989 1.99775 1.97625 1.97425 1.98625 1.98725 1.98375 2.09925 2.152426 2.295328 2.252098 2.225882 2.17375 2.11125 2.12075 2.1105 1.9895 1.9815 1.962 1.997 2.122259 2.148001 2.104215 2.142289 2.199918 2.277659 2.158 2.10825 2.223 2.11075 2.13075 2.2355 2.21875 2.21625 2.1775 2.14725 2.171 2.19825 2.28875 2.2415 2.33025 2.37775 2.364 2.532 2.6535 2.685 2.45475 2.396 2.11925 2.031 1.99825 2.033567 2.20945 2.258114 2.28525 2.364469 2.342 2.323 2.348225 2.4925 2.525393 2.507895 2.415046 2.391062 2.208693 2.236269 2.422951 2.283253 2.38125 2.28344 2.242224 2.296254 2.1935 2.34927 2.506 2.57125 2.65675 2.6185 2.6275 2.581 2.421 2.4055 2.53725 2.62125 2.617 2.573 2.673 2.64375 2.6485 2.66975 2.6185 2.340935 2.48725 2.56 2.5335 2.59125 2.5505 2.540308 2.4475 2.41584 2.4675 2.42975 2.47025 2.4855 2.348589 2.4585 2.29875 2.3735 2.35175 2.3545 2.3785 2.356 2.284 2.267 2.28025 2.28375 2.24875 2.21875 2.1435 2.04325 1.9445 1.8805 1.88075 1.79075 1.755 1.731 1.691 1.70275 1.647 1.4915 1.33825 1.43025 1.5315 1.5375 1.554 1.571 1.5635 1.5635 1.57275 1.5705 1.56 1.53625 1.5585 1.54875 1.5395 1.5475 1.51875 1.52475 1.54025 1.5225 1.49175 1.4855 1.511 1.50425 1.4855 1.48225 1.4785 1.475 1.462 1.46825 1.46675 1.468 1.46425 1.44875 1.45425 1.44125 1.4195 1.444 1.4285 1.45225 1.4255 1.4115 1.401 1.358 1.391 1.332 1.30025 1.26625 1.1305 1.073979 1.2545 1.04025 0.94 0.97275 1.05025 1.0025 0.9485 0.9525 0.956 0.99075 0.9655 0.982 0.9985 0.981 0.98025 0.9865 0.96175 0.9985 1.082001 1.29 1.258 0.9437356 1.05625 0.9665273 1.04925 1.03675 0.9525 0.94025 0.95925 1.04275 1.0945 1.011956 1.09275 1.148 1.03975 1.055 1.168 1.102 0.98875 0.95775 0.95125 0.94635 0.8456166 0.9174083 0.96 0.9635 1.097 1.099616 0.923 0.987 0.9573746 0.93475 0.904 0.92025 0.92775 0.9025 0.932 0.93625 0.9785 0.92925 0.929 0.91925 0.91225 0.88825 0.911 0.8975 0.87725 0.8815 0.94675 0.92725 0.9155 0.90625 1.016958 0.959 0.887 0.89825 0.897 0.9876719 0.952 0.9417948 0.9235 0.88575 0.8975 0.9105 0.96075 0.87875 0.9075 0.91825 0.9735 1.03575 0.94825 0.92625 0.94725 0.96325 0.96725 1 1.13525 1.0265 0.9045 0.909 0.92425 0.9915 0.936 0.93225 0.96725 0.9565 0.957 0.968 1.039 0.997 0.9685 0.946 0.977 0.9735 0.98725 0.98425 0.99775 0.98225 0.96425 0.97375 1.059 1.03925
2.035501 2.001478 1.926217 1.8645 1.82575 1.86075 1.991458 1.984865 1.9635 2.019964 2.052684 2.111603 2.08925 2.144 2.1415 2.213 2.29075 2.22375 2.24225 2.39575 2.302513 2.258646 2.1865 2.145173 2.112335 2.1085 2.1315 2.071687 2.1655 2.11169 2.052086 1.992811 1.8895 1.83425 1.8795 2.007208 2.177103 2.154 2.14 2.20025 2.193667 2.195711 2.3598 2.2855 2.25875 2.261647 2.293 2.195073 2.09275 2.0945 2.114917 2.10225 2.039 1.941 2.053684 2.120221 1.975209 1.780779 1.691 1.71525 1.774 1.854439 2.010829 2.048619 2.38102 2.66725 2.471 2.7235 2.596206 1.772653 1.4585 1.32525 1.433 1.66275 1.85975 2.099318 2.467338 2.443211 2.352005 2.269102 2.323137 2.295545 2.045611 1.8985 2.111279 2.201576 2.150559 2.351363 2.452096 2.442189 2.398969 2.340839 2.30725 2.255 2.405 2.442 2.326655 2.219198 2.05825 2.024 2.01425 1.99825 2.0055 1.99875 2.12 2.163811 2.350279 2.349172 2.513515 2.504273 2.395652 2.356457 2.189612 2.05725 1.9865 1.94275 1.96525 1.98375 2.058886 2.062477 2.11425 2.19125 2.188395 2.10525 2.15525 2.1995 2.10875 2.13475 2.195655 2.173875 2.1435 2.1675 2.3085 2.2525 2.231 2.247 2.2575 2.24425 2.38675 2.4135 2.631422 2.67125 2.573 2.540567 2.447862 2.126287 2.00675 2.005 2.088733 2.425693 2.369005 2.4115 2.46775 2.33775 2.356899 2.4095 2.409 2.5285 2.48575 2.575 2.437651 2.13825 2.228325 2.465756 2.2795 2.3915 2.32225 2.46625 2.354357 2.20475 2.382877 2.29775 2.483344 2.574 2.547173 2.604 2.5755 2.50675 2.427 2.4835 2.600492 2.538 2.595 2.637 2.64375 2.63875 2.666 2.562661 2.314542 2.504695 2.56925 2.5825 2.59 2.592 2.543 2.41825 2.48425 2.42275 2.42675 2.361 2.359 2.42575 2.409267 2.35425 2.36 2.281 2.29575 2.33525 2.331 2.28875 2.26325 2.19575 2.286 2.33275 2.30525 2.153 2.07425 2.021 1.9515 1.8915 1.794 1.7415 1.7235 1.67675 1.615 1.43 1.3945 1.5755 1.59 1.5685 1.56425 1.56375 1.58875 1.597 1.5935 1.591 1.5835 1.5795 1.55 1.56725 1.5685 1.561 1.546 1.527 1.5285 1.53725 1.526 1.512 1.5015 1.51575 1.498 1.502 1.4785 1.48475 1.5005 1.45925 1.47525 1.4585 1.493 1.46425 1.47525 1.47425 1.43825 1.441 1.43675 1.438 1.4415 1.43025 1.3925 1.41125 1.4025 1.4135 1.37225 1.346 1.2895 1.109343 1.165744 1.16225 1.0095 0.923 0.92125 0.915 0.959 0.9445 0.95625 0.95225 0.985 1.0165 0.99525 0.9605 0.95425 0.937 0.96525 0.9888052 1.01325 1.00575 1.063382 1.03775 0.97875 1.06875 1.039774 0.97525 0.96925 0.9735 0.9785 0.98425 0.9855 1.0135 1.03196 1.021143 1.1635 1.108033 1.01375 1.087 1.11475 0.984 0.943 0.9315 0.934 0.8758333 0.8945 0.988 1.0075 1.0615 1.05375 0.99875 1.0095 0.9615 0.8875 0.8925 0.9245 0.90525 0.88875 0.92475 0.90925 0.922 0.9438021 1.0195 0.92225 0.8855 0.89025 0.9712324 0.99 0.87775 0.904 0.9974883 0.9205 0.91225 0.92925 1.044125 0.941 0.92325 0.9205 0.916 0.96675 0.91325 0.9613333 0.935 0.92725 0.89425 0.897 0.90525 0.9085 0.915 0.9367371 0.98325 0.95075 0.9115 0.92 0.934 0.9295 0.96475 1.15175 1.25025 1.15825 0.99325 0.96325 0.9825 0.9948557 0.92125 0.92775 0.9525 0.92675 0.93725 0.95375 0.90175 0.907 0.9545 0.9545 0.96725 1.005 0.9629828 0.98425 0.9625 1.014 0.96275 0.911 1.063917 0.96775
1.779421 1.792777 1.77074 1.799 1.84449 1.982813 2.142577 2.01175 1.998 2.013293 2.02075 2.06525 2.119 2.166745 2.1485 2.264792 2.340583 2.27725 2.388419 2.481 2.345219 2.265815 2.19575 2.235575 2.144591 2.118379 2.097994 2.122591 2.215779 2.139057 2.086065 2.02575 1.876 1.856 1.88475 2.153774 2.288905 2.324897 2.200693 2.211095 2.217218 2.16175 2.25625 2.207335 2.196621 2.182487 2.1405 2.14075 2.07825 2.0775 2.14125 2.17575 2.048106 1.928 1.93225 1.952382 1.89016 1.727902 1.679 1.76625 1.84275 1.906 2.009 2.1085 2.227336 2.349663 2.562439 2.82725 2.588556 1.669995 1.508 1.3585 1.433405 1.62352 1.828708 2.128803 2.431439 2.432038 2.434498 2.408779 2.347358 2.326192 2.030265 1.91725 2.115651 2.342169 2.20125 2.13175 2.23925 2.3545 2.41 2.34975 2.24025 2.3235 2.37275 2.47325 2.36825 2.19868 2.058 2.03575 2.03 2.00425 2.03125 2.05 2.06225 2.088992 2.233952 2.24375 2.468 2.55725 2.63575 2.40097 2.162106 2.127163 2.024787 1.9375 1.9305 1.94925 2.056028 2.137826 2.093551 2.209272 2.22975 2.1285 2.129 2.175585 2.162 2.094 2.0835 2.08675 2.116 2.19075 2.27575 2.348 2.3375 2.32425 2.2655 2.251 2.43475 2.53975 2.57375 2.60575 2.457503 2.487884 2.481646 2.097523 2.074785 2.005 2.055286 2.136516 2.426457 2.461 2.40575 2.34175 2.464611 2.44375 2.42425 2.393 2.44775 2.577 2.464577 2.16525 2.196001 2.361842 2.334644 2.272 2.396826 2.411758 2.28 2.224409 2.38475 2.498723 2.51375 2.4205 2.410719 2.46375 2.497488 2.38875 2.4005 2.477 2.57225 2.479229 2.61325 2.663 2.59525 2.70575 2.66375 2.567824 2.36075 2.3895 2.49175 2.4885 2.54925 2.55875 2.4945 2.452 2.42175 2.384 2.291 2.381 2.49375 2.3665 2.3845 2.292257 2.269 2.306 2.30375 2.2545 2.2505 2.30525 2.30425 2.28275 2.27625 2.3075 2.3105 2.226 2.1235 2.04425 1.9375 1.84725 1.77075 1.75125 1.743 1.60275 1.4305 1.50375 1.540436 1.757332 1.754 1.6985 1.61375 1.57375 1.5905 1.59075 1.6135 1.60775 1.59125 1.60475 1.587 1.567 1.56875 1.56475 1.55275 1.54225 1.5285 1.5295 1.54275 1.524 1.5175 1.50925 1.49125 1.50825 1.4985 1.49675 1.4985 1.477 1.485 1.487 1.48725 1.4825 1.48025 1.4815 1.45725 1.45825 1.4535 1.44375 1.45775 1.436 1.4425 1.4095 1.4225 1.41025 1.3895 1.38875 1.338 1.285 1.1035 1.0285 1.078 0.97725 0.89725 0.9015 0.92775 0.95925 0.9605 0.9825 1.000875 1.08275 0.9912589 0.9835 0.95075 0.92825 0.934 1.01475 1.01275 1.0025 1.09525 1.01925 0.99525 1.17525 1.153367 1.026975 1.066582 1.058079 1.04 1.03425 1.042775 0.9845 0.9405 0.9235 1.0385 1.134266 0.95 0.98525 1.100342 1.05975 0.9565 0.92425 0.91325 0.9231666 0.8934687 0.9138333 1.001 0.98825 0.99125 0.999 0.9435 0.90575 0.88825 0.90425 0.91025 0.88925 0.88725 0.91325 0.92125 0.91625 0.9645 0.94575 0.89225 0.8955 0.96275 0.97425 0.86725 0.87225 0.887 0.87075 0.92025 0.98925 0.938 0.923 0.89225 0.90725 0.9105 0.8965 0.895 0.89275 0.9680167 0.9445 0.908 0.902 0.8975 0.902 0.9035 0.8875 0.95175 0.941 0.883 0.89575 0.925 0.9025 0.95625 0.9775 1.196 1.27125 1.161 1.12675 1.133138 0.9744869 0.9169661 0.89275 1.00875 0.9407542 0.9495 0.925 0.92575 0.8955 0.9085 0.94025 0.93075 0.9055 0.941 0.96275 0.96625 0.9445 1.016045 0.9755 0.91475 0.97 0.931
1.73875 1.73725 1.7895 1.908812 2.078954 2.117075 2.07375 2.011 2.091 2.006 2.07575 2.126985 2.07525 2.12925 2.282518 2.35657 2.32625 2.3615 2.373 2.283922 2.329903 2.274455 2.20325 2.203894 2.298697 2.227056 2.201322 2.162461 2.173093 2.137743 2.055316 1.99775 1.862 1.8785 1.98025 2.14128 2.265626 2.150594 2.131512 2.16868 2.143317 2.23775 2.18025 2.199 2.247586 2.235302 2.2385 2.132066 2.04825 2.04275 2.0355 2.03725 1.951869 1.87175 1.82925 1.79325 1.752 1.7285 1.69975 1.869603 2.068144 2.0125 2.044151 2.06775 2.19 2.255648 2.670993 2.8705 2.240536 1.613703 1.386 1.375 1.476747 1.693144 1.8215 1.996001 2.32026 2.428648 2.410698 2.375386 2.320231 2.281346 2.079631 1.98425 2.055983 2.204222 2.1455 2.10425 2.200304 2.439975 2.333074 2.28375 2.2315 2.283 2.342 2.379209 2.347314 2.127225 2.04725 2.058 2.04825 2.044 2.03925 2.09575 2.0745 2.05475 2.14275 2.262173 2.461802 2.529048 2.607976 2.350938 2.081129 2.14952 2.003 1.94775 1.96475 1.931 2.059323 2.109327 2.299008 2.283297 2.20075 2.12375 2.115535 2.172243 2.09225 2.080574 2.098 2.14475 2.17225 2.21425 2.257 2.3115 2.3845 2.26975 2.289 2.262 2.3345 2.406 2.507 2.4965 2.381714 2.33275 2.442745 2.195573 2.183525 2.06775 2.02375 2.08375 2.364205 2.4985 2.3215 2.30375 2.522769 2.547049 2.34462 2.437 2.44975 2.501423 2.40993 2.17025 2.262076 2.35975 2.292857 2.321103 2.43475 2.265549 2.398266 2.308758 2.259361 2.540203 2.519116 2.39825 2.58375 2.491794 2.408 2.446 2.4965 2.561513 2.479 2.48223 2.627 2.629 2.62375 2.609 2.59975 2.66575 2.482553 2.3805 2.34275 2.43925 2.56475 2.55325 2.5225 2.5785 2.5065 2.43975 2.460515 2.418 2.445 2.42025 2.43475 2.251 2.2585 2.2835 2.281 2.29725 2.303 2.28925 2.333 2.36725 2.449168 2.34325 2.272 2.14825 2.13525 2.14 1.9675 1.877 1.89975 1.837024 1.597782 1.472307 1.3685 1.5525 1.790029 1.8025 1.805 1.7735 1.67975 1.6035 1.60375 1.61275 1.64 1.625 1.617 1.6105 1.591 1.58625 1.57725 1.55625 1.56175 1.56625 1.533 1.5435 1.5585 1.5395 1.52325 1.52125 1.4985 1.498 1.51025 1.50625 1.50725 1.51175 1.502 1.48925 1.5015 1.48225 1.4895 1.48525 1.463 1.47125 1.47475 1.4655 1.47425 1.4605 1.4575 1.4185 1.4425 1.437 1.42225 1.4215 1.3465 1.32225 1.2155 1.053 1.1315 1.1065 0.93825 0.907 0.9345 0.97625 0.95625 0.93825 1.013 1.032381 0.97175 0.9605 1.000864 0.951 0.941 1.0075 1.01125 0.9725 0.988 1.0125 1.00275 1.005981 0.9701685 1.146 1.1695 1.069215 0.9849021 1.006477 0.9995 0.95475 0.9525 0.96325 1.06825 1.015875 0.939 0.9595 0.974 0.96325 0.938 0.9065 0.89575 0.96725 1.013333 0.9664999 1.04775 0.995 0.9585 1.05475 1.049139 0.95625 0.8995 0.912 0.91375 0.891 0.89275 0.909 0.907 0.95375 0.9645 0.91775 0.892 0.9145 0.9593509 0.94725 0.90875 0.91475 0.8975 0.88325 0.9378077 0.94825 0.96075 0.9275 0.90025 0.89925 0.91325 0.90925 0.963 0.9170625 0.97025 0.90575 0.8845 0.9535 0.9793169 0.88475 0.88 0.88625 0.89975 0.906 0.89025 0.92675 1.04325 0.959 0.9573889 1.001694 1.0645 0.9955 1.028 1.12225 1.09175 1.01875 0.9767932 0.9785 0.9835 0.9297479 0.9547396 0.88625 0.9085 0.932 0.91675 0.95225 1.00975 0.929 0.9095 0.932 0.9485 0.95575 0.949 0.937 0.908 0.927 0.92875
1.859678 1.950989 2.034275 2.059725 2.259793 2.196974 2.088 2.029 2.08125 2.166686 2.0655 2.20975 2.10375 2.1545 2.404444 2.517 2.439 2.3205 2.3265 2.23725 2.24575 2.2155 2.18675 2.2375 2.217756 2.167935 2.240121 2.212511 2.165007 2.168652 1.962018 1.940871 1.8645 1.87925 1.996 2.089168 2.232702 2.12775 2.08725 2.10825 2.098 2.142268 2.215186 2.13 2.1165 2.10875 2.07925 2.061 2.031 2.01475 2.001 1.96225 1.92825 1.88375 1.88775 1.85625 1.78175 1.77375 1.7485 2.092972 2.105622 2.058186 2.05825 2.046 2.121 2.1755 2.493207 2.789 2.015889 1.532778 1.38475 1.43325 1.541599 1.815744 1.880705 1.888465 2.259332 2.46622 2.43343 2.327355 2.294687 2.276159 2.093722 2.0235 1.993742 2.008484 2.08275 2.15975 2.206341 2.320322 2.256 2.31475 2.22575 2.23 2.28375 2.162899 2.16475 2.1415 2.16425 2.124 2.064 2.065 2.06475 2.096 2.1195 2.0805 2.1175 2.24225 2.23975 2.29761 2.333291 2.19925 2.143539 2.14928 2.14146 2.00675 1.9405 1.92025 1.945 2.032592 2.14375 2.19125 2.291969 2.1475 2.1175 2.094911 2.064959 2.0085 2.160024 2.193024 2.1435 2.219 2.248533 2.388769 2.416 2.31225 2.30575 2.285 2.30025 2.293 2.41925 2.505 2.3335 2.366 2.401 2.24825 2.2305 2.09625 2.00925 2.02575 2.139231 2.438356 2.392843 2.3915 2.51575 2.510813 2.347897 2.31375 2.375838 2.3855 2.428042 2.289087 2.200019 2.433909 2.32475 2.37525 2.352 2.316296 2.329092 2.263313 2.306 2.355287 2.3485 2.35075 2.4685 2.47 2.48175 2.4975 2.582 2.52926 2.41925 2.45125 2.62975 2.635 2.63625 2.414827 2.460042 2.5915 2.496 2.35925 2.490105 2.5065 2.59575 2.47825 2.59025 2.53625 2.59375 2.5075 2.54625 2.50025 2.3485 2.368 2.273595 2.291957 2.3325 2.3345 2.31375 2.26925 2.30175 2.343 2.331 2.4565 2.5205 2.40875 2.262 2.209 2.185 2.142 2.088 2.01975 1.9835 1.767225 1.473 1.41875 1.471 1.6575 1.84275 1.84325 1.81675 1.76775 1.6895 1.6185 1.63975 1.632 1.6555 1.628 1.616 1.61775 1.58 1.58325 1.58525 1.58325 1.59525 1.57225 1.55425 1.53625 1.55925 1.54425 1.52775 1.531 1.526 1.53325 1.50175 1.5105 1.502 1.4925 1.5225 1.491 1.5175 1.49425 1.47925 1.46875 1.46 1.486 1.4605 1.48225 1.466 1.45625 1.48125 1.4515 1.45975 1.4385 1.43675 1.4285 1.402 1.355 1.26825 1.16475 1.077614 1.05575 0.93 1.0105 1.0725 1.040814 1.05325 0.965 0.97725 0.98575 1.00025 1.0005 1.075444 1.128 1.072 1.058407 1.07675 0.96125 0.968 1.0155 1.034536 1.002405 1.037214 1.15575 1.245 1.303 1.261 1.057026 0.99075 0.95325 1.064219 1.04025 1.02725 0.98975 0.89325 0.918 0.90075 0.92025 0.926 0.929 0.95 0.97075 1.102125 1.118564 1.1951 1.07475 0.95525 0.997 0.95475 0.92675 0.903 0.9215 0.92925 0.90675 0.90425 0.91225 0.90275 0.9185 0.9555 1.019333 0.9490996 1.0155 0.939 0.90775 0.91875 0.999582 0.94275 0.89175 0.88725 0.92575 0.89875 0.89975 0.86725 0.9699167 0.9745695 0.9650625 0.962 0.9545 0.886 0.8935 0.85775 0.93225 0.9516153 0.89925 0.8835 0.897 0.885 0.90075 0.9285 0.936 0.92475 0.893 0.8995 0.95575 0.94675 0.915 0.94925 1.045888 0.96675 1.0565 1.153647 1.143097 0.993724 0.99825 0.9675 0.8745 0.89825 0.9145 0.90025 0.95275 0.936325 0.962 0.9675 0.921 0.93575 0.92125 0.9385 0.94825 0.92425 0.92125 0.92775
2.022473 2.113475 2.118385 2.107107 2.161175 2.232539 2.123 2.083 2.189046 2.205191 2.143855 2.1215 2.15025 2.157267 2.27087 2.485956 2.43525 2.393217 2.27194 2.23 2.23725 2.25925 2.2165 2.174 2.16325 2.2955 2.242907 2.272029 2.184523 2.076343 1.92173 1.899893 1.8925 1.9 2.082555 2.19441 2.167376 2.07675 2.064 2.0625 2.0575 2.07325 2.161588 2.107 2.164262 2.09 2.03825 2.04425 2.004 2.02825 2.0005 2.001 1.9825 1.9785 1.947072 1.887131 1.8555 1.79375 1.988849 2.23084 2.129665 2.136162 2.1405 2.06225 2.08375 2.131 2.387595 2.503561 2.446042 1.628437 1.42575 1.45075 1.652413 1.760694 1.815862 1.84175 2.088224 2.433664 2.372746 2.301777 2.303135 2.280974 2.156198 2.05325 2.04275 2.026 2.12275 2.208 2.2085 2.212 2.22725 2.20125 2.186 2.186 2.2655 2.13725 2.09975 2.076 2.13975 2.145 2.0995 2.0685 2.065 2.11925 2.16175 2.09425 2.11 2.122 2.197 2.253704 2.22258 2.16175 2.261967 2.389962 2.239736 2.117587 1.931 1.912 1.939 1.929146 2.08086 2.069106 2.026401 2.11033 2.03401 1.99075 2.012 1.99925 2.055 2.03 2.14004 2.164221 2.209506 2.2875 2.25725 2.23 2.19625 2.302949 2.34725 2.2635 2.331022 2.326384 2.42475 2.38525 2.33425 2.2745 2.15028 2.1565 2.0395 2.00925 2.0545 2.126591 2.28349 2.38125 2.377276 2.333659 2.248264 2.334 2.398 2.33925 2.389624 2.291725 2.172 2.37099 2.3235 2.458584 2.371398 2.35275 2.39325 2.277401 2.334 2.31525 2.329 2.437 2.4225 2.441464 2.455823 2.42675 2.586 2.59175 2.456174 2.490552 2.6575 2.596 2.486327 2.37575 2.38375 2.45225 2.395667 2.343375 2.421 2.47725 2.508407 2.4285 2.57214 2.589 2.56425 2.5345 2.4525 2.436 2.4085 2.325 2.3685 2.22875 2.27025 2.39375 2.32725 2.252 2.3325 2.35275 2.37625 2.39475 2.40075 2.322 2.251 2.22525 2.1705 2.1685 2.18475 2.13975 1.955145 1.683094 1.4485 1.42625 1.618203 1.77983 1.902 1.7985 1.75825 1.7245 1.704 1.6335 1.64725 1.661 1.66675 1.645 1.6475 1.62675 1.611 1.59825 1.60275 1.606 1.6115 1.60075 1.565 1.5545 1.58275 1.54975 1.53575 1.53725 1.535 1.54825 1.52 1.5055 1.4995 1.506 1.523 1.4895 1.51475 1.5035 1.49775 1.4935 1.48325 1.481 1.459 1.4955 1.4825 1.473 1.4685 1.46875 1.46675 1.4385 1.45025 1.4195 1.414 1.40425 1.3205 1.285 1.1605 0.9915 0.90675 1.04675 1.101557 0.99475 0.96175 0.9305 0.99525 1.01025 1.025 1.01 1.0365 1.181406 1.155095 0.9803924 0.98 0.91775 0.9385 0.98575 0.99425 0.9775 0.98675 1.1425 1.053368 1.152401 1.084 1.03575 0.9395 0.9455 1.071024 1.0485 1.03275 1.064391 0.99375 0.93025 0.956 0.99175 0.99075 0.97975 1.02025 1.108845 1.19929 1.3245 1.33525 1.25475 0.997 0.95625 0.92425 0.91975 0.92225 0.931 0.9295 0.92025 0.93225 0.9335 0.90425 0.897 0.90825 0.90175 0.903 0.95075 0.91 0.90675 0.90725 0.96 0.97075 0.9553 0.993 0.967625 0.972 0.912 0.867 0.9918269 1.002051 0.92375 0.90975 1.0363 0.92525 0.91125 0.90975 0.90825 0.957 0.88025 0.90525 0.91675 0.9085 0.909 0.87925 0.903 0.91075 0.91575 0.9055 0.9255 0.98525 0.93125 0.92475 0.94475 0.9345 1.0075 1.019 1.04575 0.9935 0.959 0.97225 0.9806733 0.98275 0.88125 0.94775 0.89825 0.8995 0.91875 0.935 0.9175 0.93225 0.9335 0.933 0.91375 0.91825 0.92925 0.94625
2.098854 2.161542 2.17053 2.234239 2.13125 2.17025 2.08425 2.171 2.271662 2.446031 2.246328 2.106 2.15825 2.183509 2.252709 2.32112 2.46417 2.392561 2.315 2.23175 2.23625 2.208613 2.21925 2.15025 2.1485 2.17775 2.183 2.224853 2.056202 2.01225 1.9295 1.92125 1.927 1.938 2.160385 2.145192 2.098634 2.07825 2.01325 2.039 2.02025 2.0435 2.0715 2.0635 2.13175 2.0385 2.02975 2.05725 2.0285 2.06175 2.02 2.041 2.01875 1.961 1.97675 1.94925 1.87675 1.8065 2.070469 2.206 2.135 2.1595 2.104388 2.08125 2.113 2.12575 2.255 2.631512 2.594648 1.62245 1.38125 1.518 1.765331 2.000818 2.02117 1.83425 2.053895 2.39221 2.412949 2.284232 2.319159 2.276213 2.162599 2.052 2.10175 2.076 2.198953 2.257 2.16625 2.1825 2.19075 2.17325 2.18375 2.18725 2.19375 2.12875 2.13525 2.219091 2.20675 2.1545 2.1065 2.07025 2.061 2.09875 2.1735 2.13525 2.1065 2.17225 2.25575 2.226204 2.23 2.327924 2.359002 2.44925 2.315053 2.248456 2.034452 1.91975 1.902 1.8885 1.959448 1.946949 1.97 1.945 1.95475 1.9965 2.075804 2.081648 2.13 2.036 2.095 2.106 2.1835 2.256107 2.22925 2.2165 2.29625 2.266 2.244 2.23375 2.2625 2.283133 2.3725 2.2975 2.36875 2.26875 2.17719 2.159263 2.133553 2.034 2.02525 2.04375 2.177582 2.418287 2.389219 2.25975 2.252 2.320534 2.3975 2.360291 2.263289 2.221082 2.18375 2.402461 2.32575 2.421 2.37725 2.446274 2.509034 2.313196 2.2495 2.3255 2.36075 2.42175 2.33225 2.37775 2.42075 2.3655 2.374686 2.3975 2.3835 2.39975 2.4985 2.478514 2.378507 2.31425 2.412323 2.33425 2.23925 2.21325 2.29775 2.375001 2.380689 2.5285 2.63425 2.6205 2.57825 2.5285 2.54625 2.380058 2.36125 2.4655 2.4275 2.3585 2.34125 2.24325 2.30925 2.29075 2.379 2.46025 2.38075 2.40925 2.2875 2.20925 2.182 2.107 2.1395 2.1625 2.16275 2.021221 1.601329 1.417393 1.399 1.4895 1.897654 1.9435 1.981 1.86675 1.78825 1.7905 1.755 1.646 1.64975 1.6805 1.67375 1.65875 1.669 1.634 1.6255 1.62675 1.6235 1.61875 1.609 1.61275 1.5975 1.568 1.5795 1.55625 1.551 1.55275 1.56375 1.55625 1.51825 1.511 1.523 1.51425 1.51675 1.5005 1.518 1.51225 1.50375 1.503 1.49825 1.488 1.468 1.48325 1.4835 1.492 1.4835 1.4705 1.46875 1.47075 1.461 1.452 1.42425 1.42225 1.36275 1.351 1.28025 1.1165 1.00175 1.072 1.064214 0.95825 0.941 0.96625 1.02025 0.98775 1.001243 0.95775 0.97575 1.0225 0.9648447 0.988207 0.90875 1.01325 0.99025 0.9731218 1.0705 0.97675 0.94325 1.08825 1.065741 1.160975 1.06625 1.115852 0.932 0.91975 1.00875 0.99425 1.0275 0.9925 0.98 0.951 0.98475 1.085365 1.026 0.94275 0.96225 1.01025 1.1555 1.3555 1.33525 1.23975 0.976 0.954 0.941 0.95575 0.96075 0.955 0.947 0.9575 0.9285 0.944 0.92875 0.91625 0.957 1.000359 0.934 0.95925 0.89375 0.92375 0.9155 0.9045 0.9405 0.94 0.92075 0.91325 0.9518036 0.897 0.95475 0.923 0.89975 0.88775 0.86425 0.922 0.88525 0.922 0.9265 0.9065 1.02975 0.92575 0.933 0.9075 0.914 0.94 0.92475 0.90625 0.896 0.9265 0.9175 0.93 0.9494297 0.9095 0.93675 0.93125 0.913 0.93 0.96175 0.95275 0.91525 0.89075 0.96075 0.98225 0.956 0.928 0.9907565 0.95375 0.9205 0.92275 0.874 0.9045 0.91925 0.90675 0.899 0.90625 0.918 0.913 0.942
2.068264 2.062207 2.107487 2.172886 2.1975 2.18475 2.144896 2.289773 2.398157 2.384 2.338393 2.25775 2.17925 2.17625 2.22625 2.337594 2.46274 2.37675 2.343 2.22925 2.271 2.253234 2.18475 2.127 2.11325 2.136 2.133 2.057363 2.0345 1.967 1.95125 1.9545 1.937 1.93375 2.027616 2.081161 2.068981 2.0955 1.95425 2.013 2.01875 2.035 2.04975 2.0325 2.0705 2.0345 2.0455 2.062 2.086 2.0685 2.06125 2.0535 2.026 2.086335 2.03071 2.00425 1.906 1.858 1.958078 2.133156 2.15825 2.15925 2.123 2.1265 2.136 2.14075 2.238848 2.58999 2.431111 1.575979 1.41475 1.561 1.911728 2.499695 2.211824 1.79125 2.028136 2.237168 2.223856 2.237693 2.36402 2.34033 2.229903 2.0845 2.05175 2.1235 2.111 2.172111 2.1955 2.1655 2.1825 2.16025 2.16625 2.17375 2.1485 2.12175 2.12175 2.2595 2.21575 2.14375 2.1185 2.12275 2.09275 2.10425 2.11675 2.117 2.11825 2.218959 2.334949 2.251705 2.22825 2.2505 2.268 2.373 2.451673 2.407541 2.059366 1.906 1.8825 1.879 1.87925 1.884 1.89225 1.911 1.939 2.030059 2.061366 2.123538 2.111 2.20475 2.158 2.081 2.2885 2.3865 2.320472 2.24275 2.2085 2.3125 2.27675 2.2825 2.3465 2.395137 2.34425 2.2975 2.2835 2.261367 2.290624 2.336114 2.337494 2.221759 2.114062 2.05075 2.184984 2.4285 2.268 2.228912 2.40325 2.392 2.34375 2.23306 2.223295 2.223023 2.26375 2.392132 2.32725 2.38325 2.324 2.458 2.3554 2.249 2.30399 2.306 2.42725 2.29925 2.381 2.37175 2.3385 2.406125 2.3695 2.3295 2.441308 2.4755 2.45425 2.4295 2.2935 2.259333 2.31775 2.281028 2.40125 2.24525 2.2855 2.37575 2.37625 2.45475 2.526543 2.43 2.425 2.4015 2.46625 2.35775 2.394875 2.398 2.237613 2.37625 2.3465 2.341 2.33375 2.33575 2.351 2.33675 2.38825 2.431322 2.25775 2.183 2.09625 2.11525 2.19925 2.144 1.975665 1.663988 1.534052 1.3575 1.522849 1.777202 1.957991 1.99225 1.96825 1.89475 1.80425 1.809 1.76875 1.656 1.64125 1.661 1.68375 1.68825 1.6595 1.65175 1.65375 1.63275 1.6205 1.6165 1.62175 1.63025 1.61275 1.611 1.59725 1.5625 1.557 1.56825 1.57325 1.543 1.5235 1.54975 1.52875 1.525 1.506 1.514 1.51225 1.50775 1.51275 1.495 1.484 1.50725 1.47825 1.5005 1.48375 1.48625 1.491 1.47675 1.481 1.465 1.4915 1.46075 1.4285 1.43525 1.394 1.38925 1.317 1.2495 1.1315 1.06975 1.025 0.986 0.97275 0.97375 0.97125 0.976 0.94675 0.9655 1.034067 1.041 0.95 0.976 0.98225 1.104979 1.02525 1.03875 1.057 1.01075 1.04625 1.11125 1.04275 1.1475 1.15 1.15068 0.96925 0.963 1.0315 0.9575 1.052114 0.962 1.01525 0.97175 0.96375 1.02 0.95 0.91275 0.91875 0.98175 1.03325 1.2755 1.260355 1.153026 1.0365 0.9525 0.94075 0.9575 0.9575 0.94625 0.94325 0.965 0.94775 0.95325 0.94625 0.95775 0.967 1.01425 0.9785 1.03888 0.9605 0.9325 0.962 0.9795 0.91 0.90775 0.9565 1.021722 0.92875 0.915 1.079814 0.96425 0.906 0.91825 0.87525 0.9155 0.9265 0.91525 0.9355 0.93525 0.9766498 0.9805 0.988875 0.92075 0.959 1.022367 0.914 0.92725 0.94475 0.99825 1.047612 0.90975 0.9485 0.9795 0.9595 0.938 0.93025 0.91325 0.93525 0.9415 0.933 0.907 0.911 0.968 0.9885 0.984 0.92675 1.00975 1.036122 0.966 0.92275 0.91325 0.93225 0.91225 0.916 0.888 0.90225 0.88025 0.88575
2.011524 2.10438 2.1035 2.16625 2.175 2.233333 2.2095 2.242126 2.29575 2.28675 2.32825 2.255588 2.304135 2.2735 2.330409 2.31228 2.397625 2.465646 2.256 2.20925 2.3055 2.307 2.1455 2.0975 2.09275 2.085 2.131173 2.02525 1.9585 2.0155 1.996 1.9935 1.972 1.93325 1.922 1.946 1.9915 2.03525 1.93775 1.98025 1.966452 2.021 2.031 2.0125 2.041 2.045 2.072 2.12625 2.0835 2.08475 2.0725 2.11925 2.072 2.026345 2.03975 1.9905 1.906 1.8855 2.026576 2.153798 2.23675 2.264125 2.179507 2.191 2.183 2.177 2.24975 2.50625 2.079084 1.48727 1.427 1.62884 1.97042 2.525109 2.322642 1.8725 1.9695 2.167305 2.17316 2.218105 2.427298 2.564904 2.525793 2.13807 2.058 2.155195 2.259563 2.121 2.1955 2.206 2.16375 2.15725 2.1675 2.17125 2.14075 2.1395 2.12725 2.20675 2.17925 2.121 2.1615 2.2385 2.11075 2.12575 2.097 2.1115 2.11725 2.262765 2.2955 2.2655 2.29075 2.300123 2.46475 2.479248 2.334365 2.145765 1.945114 1.9095 1.8795 1.88425 1.90375 1.92175 1.93075 1.95175 1.9035 1.90175 1.963459 2.0545 2.130197 2.274101 2.304528 2.162833 2.19825 2.2835 2.2005 2.17025 2.20825 2.256 2.32 2.228 2.2315 2.332026 2.339 2.3775 2.309938 2.3045 2.22775 2.3035 2.3185 2.374677 2.195651 2.056 2.10325 2.365469 2.279304 2.224116 2.3765 2.367828 2.304797 2.346094 2.444607 2.22529 2.349041 2.3095 2.2575 2.3775 2.37325 2.401134 2.30225 2.38274 2.325 2.3395 2.24275 2.30925 2.32575 2.34625 2.31325 2.46 2.4105 2.3425 2.356 2.336 2.373417 2.29 2.38975 2.277614 2.370542 2.500439 2.3615 2.26475 2.4045 2.44225 2.451 2.36 2.35725 2.3125 2.40775 2.38925 2.33375 2.244632 2.335998 2.2875 2.412394 2.44 2.48675 2.426366 2.468 2.439238 2.430242 2.381 2.352 2.396 2.39525 2.317527 2.19825 2.18025 2.011268 2.194441 1.960596 1.513692 1.386 1.48075 1.71375 2.033223 2.13525 2.096 1.9505 1.918 1.88625 1.857 1.84675 1.67575 1.6715 1.6635 1.67775 1.66225 1.66925 1.66825 1.646 1.62375 1.647 1.64225 1.635 1.64 1.60775 1.59625 1.6155 1.5865 1.5685 1.566 1.563 1.544 1.5315 1.5405 1.53025 1.513 1.51375 1.51875 1.5235 1.51775 1.51375 1.50125 1.5035 1.48675 1.4775 1.5065 1.48525 1.5285 1.51375 1.49775 1.4975 1.471 1.50025 1.466 1.46675 1.4495 1.438 1.422 1.35375 1.309 1.21975 1.113989 1.10463 1.018 1.02825 0.93 0.94 0.995 0.96875 0.96275 0.95225 0.94475 0.95775 1.052 1.103589 1.03875 0.96675 0.95325 0.97675 0.99875 1.2245 1.23875 0.944 0.95325 0.94375 0.97175 0.9645 0.97325 1.007 0.9815 1.15275 0.97875 0.9719248 0.954 0.969 0.9885 1.04325 0.98275 0.88375 0.9175 0.98075 1.06225 1.072 0.9406425 1.042033 0.949 0.90575 0.938 0.94475 0.9505 0.9345 0.96275 0.93575 0.9525 0.96675 0.95 0.932 0.9645 0.96175 1.019609 1.01025 1.01025 0.972 0.931 0.93725 0.91175 0.92475 0.95625 0.919 0.898 0.9861786 0.9835 0.9437114 1.00875 0.9315 0.94025 0.91975 0.92675 0.9065 0.90025 1.006 0.92075 0.99375 0.8955 0.89675 0.92625 0.9445 0.93425 0.919 0.9315 0.9925 0.93925 0.9485 0.95775 0.946 0.9245 0.93125 0.9575 0.98725 0.98775 0.9515 0.9445 0.99925 0.9571196 1.051141 0.9540011 0.96325 0.91675 0.90475 0.931 0.9675 0.94925 0.908 0.91875 0.92825 0.93025 0.9385 0.9215 0.93325
2.216882 2.546974 2.318702 2.13825 2.192383 2.17725 2.166 2.344787 2.2535 2.4225 2.4905 2.460415 2.295275 2.305999 2.478691 2.359372 2.35675 2.312731 2.181 2.17525 2.18225 2.1405 2.13275 2.084 2.07125 2.0665 2.13016 2.00325 2.049318 2.122066 2.02575 2.013 2.0555 2.152435 2.019635 1.948019 1.95225 1.94025 1.96325 1.97025 1.9435 1.99825 2.00575 1.99925 2.0535 2.06275 2.087 2.11325 2.131 2.189334 2.14625 2.1225 2.193751 2.139528 2.020706 1.9185 1.8935 1.92225 2.091813 2.218434 2.27925 2.251 2.29675 2.1995 2.1795 2.28975 2.330738 2.15539 1.674524 1.47925 1.47775 1.671 2.059188 2.409029 2.201266 1.880921 1.885461 2.078381 2.200863 2.259409 2.582077 2.623755 2.656083 2.190707 2.0285 2.304216 2.363539 2.11375 2.13375 2.147 2.16525 2.16375 2.25225 2.2545 2.219508 2.187 2.16775 2.316 2.27875 2.1435 2.17125 2.201 2.11275 2.11175 2.1135 2.1505 2.166 2.18975 2.1895 2.191 2.262 2.27 2.281098 2.302758 2.147593 2.093438 1.928186 1.873 1.8635 1.91525 2.017413 2.150832 2.262447 2.109204 1.9495 1.942 1.93575 1.992978 2.061442 2.307776 2.4635 2.254 2.255343 2.2074 2.165372 2.281984 2.227604 2.257875 2.367061 2.25475 2.2145 2.339672 2.395703 2.297 2.326 2.345 2.449 2.377341 2.315676 2.314 2.177852 2.0725 2.07375 2.305048 2.26801 2.1945 2.295457 2.336923 2.21875 2.28875 2.36125 2.24125 2.33034 2.2485 2.24675 2.323 2.32625 2.4275 2.311 2.419824 2.399 2.335 2.28575 2.332784 2.3905 2.339125 2.38575 2.40825 2.399542 2.35075 2.3795 2.31975 2.363425 2.39425 2.4825 2.336 2.513 2.49025 2.35325 2.305 2.416 2.40725 2.371 2.377458 2.32 2.406 2.34475 2.3775 2.258 2.32275 2.347 2.43075 2.38175 2.3085 2.35325 2.32075 2.37625 2.45225 2.44 2.3185 2.342 2.3175 2.29925 2.390213 2.2185 2.18225 2.182062 1.668222 1.603403 1.4315 1.441 1.785216 2.02032 2.1635 2.246 2.208342 2.0155 1.98625 1.92475 1.89975 1.887 1.78225 1.7205 1.73325 1.73925 1.696 1.66975 1.66475 1.65125 1.6365 1.648 1.6555 1.646 1.6355 1.61425 1.60975 1.63125 1.6135 1.6025 1.57 1.56125 1.5505 1.54775 1.538 1.53425 1.5365 1.52 1.53325 1.5185 1.52175 1.5185 1.51 1.52075 1.50575 1.483 1.505 1.50325 1.506 1.49925 1.49725 1.511 1.487 1.4925 1.46775 1.476 1.472 1.4705 1.46675 1.4 1.34575 1.29725 1.18475 1.03925 0.9985 1.011886 0.93225 0.92975 0.9745 0.9595 0.96775 0.952 0.941 0.98175 1.06075 0.978875 0.95125 0.94275 0.95525 0.961 0.99025 1.149486 1.0895 0.9375 0.91475 0.929 1.02925 0.9955 0.964 0.951 1.03325 1.093556 0.96475 0.936 0.949 0.96325 1.015406 1.1055 1.079511 1.07425 1.00075 1.016107 0.94225 0.91075 0.895 0.9135 0.903 0.88175 0.9365 0.95875 0.91025 0.92125 0.931 0.9065 0.955 0.977 0.94075 0.926 0.9165 0.92775 1.0015 1.032931 1.015 0.8965 0.9065 0.9425 0.928 0.91075 0.89775 0.88875 0.86725 0.902 0.91825 0.90875 0.9595 0.95725 0.94325 0.91125 0.94175 0.95975 0.8975 1.029615 0.958 0.9345 0.93225 0.9525 0.95825 0.93375 0.92825 0.93475 0.94625 0.9595 0.9275 0.9115 0.944 0.9235 0.9215 0.977 1.022093 1.108743 1.0355 0.937 1.046 0.9721496 0.97275 0.969 0.977 0.97475 0.95825 0.92225 0.9245 0.94 0.958 0.8935 0.93525 0.98525 0.95825 0.9660147 1.00375 1.014068
2.099816 2.615038 2.66498 2.53942 2.317477 2.182013 2.1825 2.209061 2.23375 2.30075 2.618859 2.641193 2.521117 2.457289 2.48125 2.33641 2.2875 2.237854 2.16775 2.18575 2.12725 2.11675 2.121 2.06975 2.053 2.01575 2.035393 2.011 2.042962 2.139061 2.04425 2.03425 2.13475 2.303745 2.461935 2.370184 2.0035 1.996 2.0135 2.080317 2.032411 1.98825 2.00075 2.07175 2.081682 2.05675 2.09575 2.1135 2.226 2.186962 2.13475 2.172052 2.164638 2.112392 1.917425 1.8705 1.99275 2.069197 2.153456 2.196018 2.216951 2.22525 2.2175 2.2125 2.181 2.45575 2.683682 2.142212 1.553008 1.42825 1.49425 1.774036 2.015857 2.230375 2.248948 1.973923 1.915078 1.993055 2.104021 2.384491 2.50253 2.583819 2.660568 2.240102 2.06125 2.198917 2.211195 2.12425 2.125 2.136 2.16725 2.17775 2.228734 2.2815 2.24875 2.186 2.1395 2.2325 2.299632 2.14625 2.13125 2.12425 2.106 2.12125 2.11475 2.20175 2.411 2.2625 2.26325 2.22075 2.27675 2.47032 2.332677 2.24 2.224 2.287886 1.968261 1.839 1.8665 1.95875 2.120942 2.291176 2.407173 2.450082 2.233308 2.00309 1.95 1.9345 2.001515 2.214986 2.385753 2.23375 2.299186 2.202667 2.178619 2.206969 2.25625 2.18175 2.29925 2.2265 2.16975 2.2485 2.398 2.268315 2.334 2.4135 2.424607 2.376 2.41175 2.216836 2.0825 2.054 2.07825 2.176 2.325739 2.34625 2.23743 2.257366 2.255907 2.353227 2.231 2.294944 2.2715 2.317 2.29775 2.3815 2.40175 2.3735 2.366625 2.425 2.30875 2.306 2.30825 2.35275 2.4015 2.4055 2.37225 2.3925 2.409345 2.33725 2.39525 2.27125 2.32125 2.398 2.377799 2.43925 2.63575 2.617089 2.288375 2.416 2.3935 2.3655 2.351248 2.32725 2.33575 2.3015 2.34775 2.38225 2.2525 2.35575 2.37175 2.298825 2.283 2.328 2.306 2.30225 2.3985 2.335 2.29925 2.2995 2.28225 2.26 2.218 2.25725 2.1835 2.16998 1.786196 1.539925 1.40725 1.4705 1.658 2.136843 2.2175 2.2435 2.26675 2.293 2.10525 2.0525 1.9785 1.9395 1.8835 1.82875 1.8005 1.852 1.8495 1.8035 1.71975 1.68375 1.66925 1.65325 1.66075 1.651 1.646 1.6505 1.641 1.62425 1.62875 1.62325 1.61175 1.58625 1.5895 1.56325 1.58 1.556 1.55675 1.54125 1.5265 1.52375 1.52075 1.511 1.5285 1.50575 1.52925 1.518 1.5095 1.5115 1.4965 1.51875 1.4965 1.519 1.50325 1.491 1.5125 1.48775 1.46925 1.49325 1.476 1.4615 1.43225 1.41375 1.34075 1.2565 1.0795 0.99875 0.9625 0.93175 0.96375 0.961 1.02725 0.9805 0.9495 0.9555 0.95875 1.0075 0.96325 0.94525 0.9515 0.94625 0.97525 0.99075 0.96725 0.9345 0.96775 0.9525 0.9805 1.13449 1.215 1.02675 1.11225 1.043 0.95325 0.94 0.94975 0.955 0.95 0.977 0.9405 0.9405 1.039167 1.063 0.94325 0.907 0.914 0.94025 0.95 0.928 0.92 0.9405 0.93075 0.9035 0.8985 0.937 0.93675 1.000972 0.95225 0.95375 0.94825 0.96125 0.96975 0.96175 0.9295 0.95025 0.92675 0.937 0.937 0.9285 0.93125 0.92575 0.8875 0.93375 0.94475 0.959 0.93675 0.9375 0.93325 0.9165 0.9185 0.92575 0.95925 0.9175 0.90275 0.91875 0.93975 0.96575 0.928 0.9765 0.95175 0.92775 0.9535 0.96275 0.91425 0.932 0.9245 0.9235 0.9325 0.94675 0.96 1.010278 1.033 0.95075 0.93275 1.02675 0.9646831 0.91525 0.92 0.93325 0.94675 0.94525 0.908 0.902 0.9565 0.9465 0.90025 0.9425 0.97775 0.932 1.03075 0.958 0.9555
2.076013 2.531249 2.726867 2.439818 2.298902 2.205744 2.185078 2.234765 2.2125 2.34 2.681209 2.59575 2.618 2.6435 2.574318 2.553568 2.3055 2.2055 2.12975 2.15425 2.1305 2.121 2.0985 2.07275 2.0705 2.04575 2.005045 2.0425 2.055 2.08475 2.06075 2.0635 2.236462 2.438578 2.642004 2.609594 2.139509 2.079327 2.137479 2.154107 2.080834 1.99075 1.988 2.018 2.0575 2.06675 2.11625 2.1545 2.272316 2.198388 2.0605 2.056 1.99575 1.98125 1.91675 1.97275 2.167392 2.184 2.11625 2.07825 2.226726 2.23525 2.229 2.23825 2.365211 2.72868 2.806569 1.993368 1.490078 1.42825 1.6085 1.824919 2.023102 2.169137 2.213596 2.063604 1.94475 1.8735 1.965681 2.151012 2.219547 2.235386 2.485501 2.329677 2.08675 2.083 2.07375 2.091 2.09775 2.13625 2.15025 2.138 2.16725 2.1915 2.162 2.151 2.15175 2.172 2.19275 2.143 2.12725 2.1085 2.1075 2.12975 2.12675 2.17925 2.26375 2.244 2.291833 2.294257 2.33375 2.507621 2.521826 2.3773 2.4545 2.526373 2.035089 1.84125 1.87325 1.987634 2.247901 2.353012 2.502921 2.580888 2.468053 2.198877 2.0235 1.9895 1.94575 2.071655 2.067764 2.21075 2.20195 2.341482 2.249 2.2275 2.2235 2.184 2.27975 2.3175 2.304151 2.24375 2.269008 2.197 2.25325 2.403625 2.3715 2.2745 2.33225 2.237 2.106 2.06875 2.166801 2.2155 2.17625 2.16625 2.171 2.174 2.247315 2.301048 2.36875 2.308592 2.301504 2.32775 2.3845 2.357 2.333 2.36725 2.36575 2.36225 2.2995 2.3295 2.47975 2.336 2.443029 2.361 2.37675 2.4135 2.45575 2.42775 2.308 2.41375 2.36185 2.30675 2.363 2.5855 2.614 2.541092 2.35625 2.35225 2.307 2.295 2.34675 2.27325 2.296 2.40575 2.422603 2.271167 2.279 2.28775 2.29246 2.25425 2.29975 2.312 2.32825 2.2995 2.3245 2.29175 2.22075 2.2735 2.096041 2.080399 2.08863 2.1635 1.959743 1.677334 1.525453 1.46325 1.466 1.6925 1.997033 2.24952 2.2815 2.29725 2.315 2.34125 2.19475 2.16425 2.1145 2.061 1.976 1.93575 1.939 1.92375 1.88825 1.80125 1.758 1.6885 1.68025 1.66725 1.661 1.64675 1.65225 1.67125 1.648 1.651 1.63925 1.62075 1.61525 1.60175 1.5915 1.564 1.5835 1.55475 1.5365 1.5335 1.526 1.5255 1.50575 1.51525 1.50875 1.527 1.5235 1.501 1.5085 1.514 1.5175 1.53675 1.49425 1.51125 1.498 1.52025 1.511 1.48975 1.47475 1.4775 1.477 1.456 1.44425 1.4445 1.3845 1.32325 1.2075 1.157 1.065509 0.93 0.985 1.127649 1.140657 0.9735 0.953 0.9505 0.95675 0.953 1.03 1.0115 0.983 0.96875 0.996 1.0025 1.003 0.9845 0.9545 1.01125 1.14125 1.148 1.156445 1.121 1.04725 1.0315 0.97925 0.961 0.928 0.89425 0.96 1.02475 0.9485 0.95225 0.95875 0.94975 0.96075 0.9625 0.94825 0.954 0.96225 0.9465 0.93125 0.9325 0.92625 0.91575 0.91925 0.93275 0.94125 0.95025 0.9445 0.9575 0.951 1.01925 1.06075 0.91775 0.91125 0.9205 0.9235 0.94375 0.9425 0.931 0.926 0.9405 0.94125 0.924 0.94725 0.97525 0.9811595 1.00475 0.93775 0.9415 0.954 0.96175 0.95075 0.94225 0.93675 0.917 0.951 0.96925 1.062 1.0835 0.9895 0.91025 0.9115 0.93675 0.9425 0.9635 0.93575 0.913 0.9545 0.93 0.93025 0.97325 0.95475 0.94625 0.908 0.901 0.89225 0.93775 0.95375 0.94375 0.943 0.91775 0.8995 0.96225 1.039982 0.9485 0.95325 0.941 0.94025 0.924 0.9525 0.929 0.9165
1.98225 2.488342 2.647925 2.361983 2.259146 2.210901 2.18525 2.2125 2.24025 2.482393 2.722204 2.689 2.554802 2.6935 2.479512 2.320899 2.245 2.18275 2.14725 2.1595 2.1395 2.126 2.099 2.13175 2.092 2.10575 2.1275 2.02925 2.149393 2.13075 2.0765 2.14225 2.265766 2.453183 2.454665 2.28648 2.152073 2.122783 2.107137 2.135592 2.048163 1.98825 1.99425 2.05325 2.0745 2.162553 2.13675 2.209933 2.211528 2.149921 2.1145 2.023841 1.959 1.93925 1.93625 2.178122 2.226477 2.171 2.233035 2.088 2.142541 2.299957 2.2495 2.2535 2.33175 2.679844 2.453653 1.606628 1.48875 1.46775 1.734078 1.909474 2.031977 2.15175 2.24932 2.152177 1.994298 1.973 1.9025 1.9625 2.027986 2.225 2.412975 2.316709 2.264456 2.13925 2.111 2.11425 2.1025 2.1255 2.128 2.1515 2.1555 2.174 2.16775 2.12675 2.1435 2.15325 2.15 2.1955 2.207 2.11375 2.12325 2.147 2.13525 2.15775 2.191 2.22175 2.246 2.32875 2.392487 2.458567 2.35975 2.352 2.468 2.482399 1.917857 1.86425 1.9455 2.021859 2.105739 2.288905 2.345328 2.240286 2.343649 2.165588 2.131109 2.030585 1.97975 1.94575 1.95725 1.98725 2.082505 2.21064 2.26788 2.4135 2.276 2.186 2.28525 2.231 2.234975 2.228 2.2015 2.2885 2.2735 2.315422 2.3095 2.2885 2.3355 2.304482 2.1155 2.0665 2.091953 2.238 2.213759 2.315 2.278 2.15775 2.29675 2.23925 2.302585 2.32725 2.33725 2.319 2.367115 2.311 2.4185 2.26225 2.327 2.3205 2.356 2.383609 2.422 2.387181 2.494765 2.39175 2.38325 2.41625 2.29425 2.426759 2.403071 2.48646 2.356 2.361129 2.4245 2.58625 2.64975 2.40449 2.2875 2.3545 2.30925 2.355813 2.25475 2.259739 2.234769 2.417519 2.315875 2.274324 2.432563 2.221084 2.13975 2.131553 2.183271 2.195051 2.259606 2.280453 2.193847 2.085341 1.877772 1.750459 1.73762 1.686498 1.666664 1.690374 1.577292 1.49625 1.426 1.51325 1.73769 2.001563 2.294838 2.38575 2.42575 2.40225 2.41675 2.4385 2.3095 2.23425 2.2385 2.1695 2.076 2.003 1.95475 1.897 1.85375 1.824 1.7735 1.70875 1.7065 1.68425 1.673 1.6665 1.6615 1.6595 1.65125 1.66075 1.638 1.62225 1.61275 1.61425 1.595 1.58425 1.59625 1.5835 1.55475 1.54075 1.5355 1.53675 1.5035 1.51375 1.53075 1.52875 1.5165 1.50225 1.533 1.5265 1.5165 1.5335 1.51775 1.53375 1.491 1.5375 1.503 1.48925 1.49325 1.46225 1.47675 1.458 1.459 1.45575 1.4285 1.37225 1.2895 1.26075 1.087 0.96625 0.983 1.03325 1.00225 0.974 0.92475 0.94675 0.9645 0.99125 0.9922814 1.108846 1.008261 1.05225 1.0015 0.9910876 0.9985 0.9465 0.9685 1.023 1.010385 1.167175 1.123653 1.070342 1.02375 0.96025 0.9515 0.952 0.9495 0.9435 0.949 0.9738125 0.992 1.002632 0.9685 0.9345 0.97175 0.99225 0.943 0.9365 0.948 0.94 0.9365 0.928 0.90875 0.9125 0.967 0.9295 0.9335 0.9255 0.93575 0.962 0.955 0.98375 0.959 0.925 0.913 0.9255 0.94075 0.93675 0.9375 0.92475 0.89875 0.944 0.959 0.95625 0.9455 0.9575 1.02575 0.94725 0.93175 0.93075 0.95475 1.040109 0.93575 0.9877935 0.95925 0.95025 0.94125 0.956 1.081365 1.04675 1.00775 0.946 0.93375 0.9685 0.979 0.982 0.9515 0.91075 0.9165 0.92625 0.914 0.945 0.9175 0.9645 0.91875 0.91675 0.93675 0.95675 0.963 0.96925 0.951 0.89 0.90475 0.94225 1.01725 0.93575 0.9655 0.9425 0.932 0.927 0.92725 0.93075 0.94675
2.247113 2.683115 2.710241 2.336523 2.227044 2.220957 2.20675 2.21925 2.26975 2.488573 2.493993 2.466548 2.737484 2.643062 2.390258 2.315217 2.320891 2.19175 2.18225 2.1845 2.12525 2.13475 2.131 2.223561 2.1285 2.04875 2.08175 2.089158 2.221721 2.20675 2.1 2.1395 2.312869 2.337376 2.271088 2.157906 2.11875 2.14 2.190608 2.105017 2.02525 1.994 2.08649 2.0915 2.0685 2.20775 2.18625 2.249581 2.218447 2.18825 2.23828 2.064183 1.92675 1.95425 2.017744 2.165833 2.242678 2.32 2.582742 2.126115 2.172412 2.337799 2.2955 2.32475 2.310972 2.164147 1.85405 1.56525 1.52125 1.535 1.551151 1.807444 2.03074 2.0415 2.147605 2.191202 2.077826 2.065111 2.014417 1.9435 1.982 2.036 2.221791 2.3462 2.478008 2.252214 2.12425 2.17125 2.19725 2.1375 2.13175 2.15325 2.14975 2.15525 2.1385 2.114 2.1335 2.13175 2.129 2.18525 2.1565 2.1305 2.14375 2.1635 2.155 2.1815 2.244 2.25175 2.22975 2.32225 2.38225 2.35275 2.341 2.31875 2.391365 2.042842 1.8196 1.8665 1.912 2.02725 2.04775 2.11325 2.13025 2.1175 2.182 2.201 2.148569 2.081047 2.056028 2.01025 1.95275 1.9735 2.017 2.093746 2.190081 2.141659 2.127 2.13675 2.17175 2.17275 2.136 2.15425 2.23875 2.25625 2.294 2.34275 2.3145 2.29475 2.294 2.273376 2.261367 2.137 2.07825 2.10325 2.173253 2.238757 2.255 2.17725 2.303344 2.23275 2.2585 2.29 2.28825 2.35325 2.37775 2.345304 2.3845 2.24975 2.2635 2.34675 2.31806 2.393549 2.331 2.458253 2.355 2.384683 2.373 2.238589 2.326917 2.289231 2.27875 2.394854 2.326 2.405 2.422085 2.54725 2.505177 2.3335 2.252 2.3545 2.227342 2.16875 2.294938 2.297355 2.16725 2.158392 2.12825 2.255066 2.205079 2.10475 2.112092 2.11975 2.10525 2.06075 1.98861 1.894127 1.773352 1.735424 1.622 1.5715 1.53175 1.4825 1.46175 1.44 1.4555 1.502 1.60425 1.75475 2.033203 2.226052 2.34175 2.42675 2.503 2.44925 2.479 2.446 2.34125 2.283 2.29175 2.2505 2.1285 2.04125 1.955 1.89675 1.84425 1.737 1.72475 1.72225 1.71975 1.6985 1.6875 1.644 1.64525 1.6265 1.612 1.622 1.614 1.6385 1.61675 1.5915 1.60925 1.5995 1.61625 1.581 1.581 1.5555 1.54525 1.5305 1.513 1.5305 1.51175 1.51 1.51825 1.50075 1.516 1.50825 1.52725 1.5185 1.50475 1.52875 1.50725 1.53475 1.51475 1.516 1.498 1.4815 1.479 1.475 1.47125 1.449 1.4425 1.43925 1.366 1.3155 1.149 0.9925 1.000725 1.0325 0.9555 0.93725 0.9545 0.97225 0.961 0.987 1.148117 1.10775 1.067 0.96825 0.97075 0.98775 0.9195 0.9485 0.96225 0.97525 0.96425 1.02725 1.00875 1.02225 0.9465 1.02 0.9625 0.95175 1.080296 0.95875 0.94575 0.9835 0.95 0.9755 0.98225 0.9565 0.9889167 1.0455 0.9555 0.916 0.93925 0.9165 0.93425 0.9245 0.91675 0.9205 0.95225 0.96525 0.92875 0.935 0.93525 0.95675 0.93225 0.93825 0.918 0.90625 0.95375 0.96875 0.9815 0.918 0.926 0.92175 0.93925 0.9465 0.9285 0.96475 0.96175 0.93725 0.937 0.9395 0.93825 0.937 0.93175 0.9355 0.95475 1.003 0.91925 0.92825 0.97225 0.986 0.98875 0.94275 0.93425 0.92175 0.9665 0.99275 0.95675 0.9545 0.9345 0.9165 0.93725 0.9115 0.93075 0.95275 0.94625 0.9895 1.025983 0.94225 0.943 0.94925 0.95625 0.9795 0.9635 0.90225 0.93775 0.9135 0.9375 0.94225 0.9385 0.92375 0.94325 0.9345 0.93775 0.9285 0.9375
